-84.3616 243.768 33.3149 0.00 0.00 0.00
-70.7525 245.383 33.8273 0.00 0.00 0.00
-57.1014 244.131 33.43 0.00 0.00 0.00
-44.0655 240.07 32.1421 0.00 0.00 0.00
-32.2726 233.397 30.0258 0.00 0.00 0.00
-97.2734 231.722 47.3113 0.00 0.00 0.00
-84.3616 235.499 49.9753 0.00 0.00 0.00
-70.7525 236.884 50.952 0.00 0.00 0.00
-57.1014 235.81 50.1946 0.00 0.00 0.00
-44.0655 232.329 47.7395 0.00 0.00 0.00
-32.2726 226.608 43.7048 0.00 0.00 0.00
-97.2734 219.786 59.6752 0.00 0.00 0.00
-84.3616 222.581 63.3564 0.00 0.00 0.00
-70.7525 223.606 64.7061 0.00 0.00 0.00
-57.1014 222.811 63.6595 0.00 0.00 0.00
-44.0655 220.235 60.2668 0.00 0.00 0.00
-32.2726 216.002 54.6914 0.00 0.00 0.00
-97.2734 204.67 67.852 0.00 0.00 0.00
-84.3616 206.222 72.206 0.00 0.00 0.00
-70.7525 206.791 73.8024 0.00 0.00 0.00
-57.1014 206.35 72.5645 0.00 0.00 0.00
-44.0655 204.92 68.5517 0.00 0.00 0.00
-32.2726 202.57 61.9574 0.00 0.00 0.00
-97.2734 187.79 71.0766 0.00 0.00 0.00
-84.3616 187.953 75.6959 0.00 0.00 0.00
-70.7525 188.013 77.3896 0.00 0.00 0.00
-57.1014 187.966 76.0763 0.00 0.00 0.00
-44.0655 187.816 71.819 0.00 0.00 0.00
-32.2726 187.57 64.8228 0.00 0.00 0.00
-107.073 241.99 14.9344 0.00 0.00 0.00
-94.1616 246.613 14.9344 0.00 0.00 0.00
-80.5525 248.307 14.9344 0.00 0.00 0.00
-66.9014 246.993 14.9344 0.00 0.00 0.00
-53.8655 242.733 14.9344 0.00 0.00 0.00
-42.0726 235.733 14.9344 0.00 0.00 0.00
-107.073 239.362 31.9176 0.00 0.00 0.00
-94.1616 243.768 33.3149 0.00 0.00 0.00
-80.5525 245.383 33.8273 0.00 0.00 0.00
-66.9014 244.131 33.43 0.00 0.00 0.00
-53.8655 240.07 32.1421 0.00 0.00 0.00
-42.0726 233.397 30.0258 0.00 0.00 0.00
-107.073 231.722 47.3113 0.00 0.00 0.00
-94.1616 235.499 49.9753 0.00 0.00 0.00
-80.5525 236.884 50.952 0.00 0.00 0.00
-66.9014 235.81 50.1946 0.00 0.00 0.00
-53.8655 232.329 47.7395 0.00 0.00 0.00
-42.0726 226.608 43.7048 0.00 0.00 0.00
-107.073 219.786 59.6752 0.00 0.00 0.00
-94.1616 222.581 63.3564 0.00 0.00 0.00
-80.5525 223.606 64.7061 0.00 0.00 0.00
-66.9014 222.811 63.6595 0.00 0.00 0.00
-53.8655 220.235 60.2668 0.00 0.00 0.00
-42.0726 216.002 54.6914 0.00 0.00 0.00
-107.073 204.67 67.852 0.00 0.00 0.00
-94.1616 206.222 72.206 0.00 0.00 0.00
-80.5525 206.791 73.8024 0.00 0.00 0.00
-66.9014 206.35 72.5645 0.00 0.00 0.00
-53.8655 204.92 68.5517 0.00 0.00 0.00
-42.0726 202.57 61.9574 0.00 0.00 0.00
-107.073 187.79 71.0766 0.00 0.00 0.00
-94.1616 187.953 75.6959 0.00 0.00 0.00
-80.5525 188.013 77.3896 0.00 0.00 0.00
-66.9014 187.966 76.0763 0.00 0.00 0.00
-53.8655 187.816 71.819 0.00 0.00 0.00
-42.0726 187.57 64.8228 0.00 0.00 0.00
-58.0734 241.99 9.37 0.00 0.00 0.00
-45.1616 246.613 9.37 0.00 0.00 0.00
-31.5525 248.307 9.37 0.00 0.00 0.00
-17.9014 246.993 9.37 0.00 0.00 0.00
-4.86555 242.733 9.37 0.00 0.00 0.00
6.92736 235.733 9.37 0.00 0.00 0.00
-58.0734 239.362 26.3531 0.00 0.00 0.00
-45.1616 243.768 27.7505 0.00 0.00 0.00
-31.5525 245.383 28.2628 0.00 0.00 0.00
-17.9014 244.131 27.8655 0.00 0.00 0.00
-4.86555 240.07 26.5777 0.00 0.00 0.00
6.92736 233.397 24.4613 0.00 0.00 0.00
-58.0734 231.722 41.7469 0.00 0.00 0.00
-45.1616 235.499 44.4108 0.00 0.00 0.00
-31.5525 236.884 45.3876 0.00 0.00 0.00
-17.9014 235.81 44.6302 0.00 0.00 0.00
-4.86555 232.329 42.175 0.00 0.00 0.00
6.92736 226.608 38.1404 0.00 0.00 0.00
-58.0734 219.786 54.1107 0.00 0.00 0.00
-45.1616 222.581 57.7919 0.00 0.00 0.00
-31.5525 223.606 59.1417 0.00 0.00 0.00
-17.9014 222.811 58.095 0.00 0.00 0.00
-4.86555 220.235 54.7023 0.00 0.00 0.00
6.92736 216.002 49.127 0.00 0.00 0.00
-58.0734 204.67 62.2876 0.00 0.00 0.00
-45.1616 206.222 66.6415 0.00 0.00 0.00
-31.5525 206.791 68.238 0.00 0.00 0.00
-17.9014 206.35 67 0.00 0.00 0.00
-4.86555 204.92 62.9873 0.00 0.00 0.00
6.92736 202.57 56.393 0.00 0.00 0.00
-58.0734 187.79 65.5122 0.00 0.00 0.00
-45.1616 187.953 70.1315 0.00 0.00 0.00
-31.5525 188.013 71.8252 0.00 0.00 0.00
-17.9014 187.966 70.5118 0.00 0.00 0.00
-4.86555 187.816 66.2545 0.00 0.00 0.00
6.92736 187.57 59.2584 0.00 0.00 0.00
-67.8734 241.99 9.37 0.00 0.00 0.00
-54.9616 246.613 9.37 0.00 0.00 0.00
-41.3525 248.307 9.37 0.00 0.00 0.00
-27.7014 246.993 9.37 0.00 0.00 0.00
-14.6655 242.733 9.37 0.00 0.00 0.00
-2.87264 235.733 9.37 0.00 0.00 0.00
-67.8734 239.362 26.3531 0.00 0.00 0.00
-54.9616 243.768 27.7505 0.00 0.00 0.00
-41.3525 245.383 28.2628 0.00 0.00 0.00
-27.7014 244.131 27.8655 0.00 0.00 0.00
-14.6655 240.07 26.5777 0.00 0.00 0.00
-2.87264 233.397 24.4613 0.00 0.00 0.00
-67.8734 231.722 41.7469 0.00 0.00 0.00
-54.9616 235.499 44.4108 0.00 0.00 0.00
-41.3525 236.884 45.3876 0.00 0.00 0.00
-27.7014 235.81 44.6302 0.00 0.00 0.00
-14.6655 232.329 42.175 0.00 0.00 0.00
-2.87264 226.608 38.1404 0.00 0.00 0.00
-67.8734 219.786 54.1107 0.00 0.00 0.00
-54.9616 222.581 57.7919 0.00 0.00 0.00
-41.3525 223.606 59.1417 0.00 0.00 0.00
-27.7014 222.811 58.095 0.00 0.00 0.00
-14.6655 220.235 54.7023 0.00 0.00 0.00
-2.87264 216.002 49.127 0.00 0.00 0.00
-67.8734 204.67 62.2876 0.00 0.00 0.00
-54.9616 206.222 66.6415 0.00 0.00 0.00
-41.3525 206.791 68.238 0.00 0.00 0.00
-27.7014 206.35 67 0.00 0.00 0.00
-14.6655 204.92 62.9873 0.00 0.00 0.00
-2.87264 202.57 56.393 0.00 0.00 0.00
-67.8734 187.79 65.5122 0.00 0.00 0.00
-54.9616 187.953 70.1315 0.00 0.00 0.00
-41.3525 188.013 71.8252 0.00 0.00 0.00
-27.7014 187.966 70.5118 0.00 0.00 0.00
-14.6655 187.816 66.2545 0.00 0.00 0.00
-2.87264 187.57 59.2584 0.00 0.00 0.00
-77.6734 241.99 9.37 0.00 0.00 0.00
-64.7616 246.613 9.37 0.00 0.00 0.00
-51.1525 248.307 9.37 0.00 0.00 0.00
-37.5014 246.993 9.37 0.00 0.00 0.00
-24.4655 242.733 9.37 0.00 0.00 0.00
-12.6726 235.733 9.37 0.00 0.00 0.00
-77.6734 239.362 26.3531 0.00 0.00 0.00
-64.7616 243.768 27.7505 0.00 0.00 0.00
-51.1525 245.383 28.2628 0.00 0.00 0.00
-37.5014 244.131 27.8655 0.00 0.00 0.00
-24.4655 240.07 26.5777 0.00 0.00 0.00
-12.6726 233.397 24.4613 0.00 0.00 0.00
-77.6734 231.722 41.7469 0.00 0.00 0.00
-64.7616 235.499 44.4108 0.00 0.00 0.00
-51.1525 236.884 45.3876 0.00 0.00 0.00
-37.5014 235.81 44.6302 0.00 0.00 0.00
-24.4655 232.329 42.175 0.00 0.00 0.00
-12.6726 226.608 38.1404 0.00 0.00 0.00
-77.6734 219.786 54.1107 0.00 0.00 0.00
-64.7616 222.581 57.7919 0.00 0.00 0.00
-51.1525 223.606 59.1417 0.00 0.00 0.00
-37.5014 222.811 58.095 0.00 0.00 0.00
-24.4655 220.235 54.7023 0.00 0.00 0.00
-12.6726 216.002 49.127 0.00 0.00 0.00
-77.6734 204.67 62.2876 0.00 0.00 0.00
-64.7616 206.222 66.6415 0.00 0.00 0.00
-51.1525 206.791 68.238 0.00 0.00 0.00
-37.5014 206.35 67 0.00 0.00 0.00
-24.4655 204.92 62.9873 0.00 0.00 0.00
-12.6726 202.57 56.393 0.00 0.00 0.00
-77.6734 187.79 65.5122 0.00 0.00 0.00
-64.7616 187.953 70.1315 0.00 0.00 0.00
-51.1525 188.013 71.8252 0.00 0.00 0.00
-37.5014 187.966 70.5118 0.00 0.00 0.00
-24.4655 187.816 66.2545 0.00 0.00 0.00
-12.6726 187.57 59.2584 0.00 0.00 0.00
-87.4734 241.99 9.37 0.00 0.00 0.00
-74.5616 246.613 9.37 0.00 0.00 0.00
-60.9525 248.307 9.37 0.00 0.00 0.00
-47.3014 246.993 9.37 0.00 0.00 0.00
-34.2655 242.733 9.37 0.00 0.00 0.00
-22.4726 235.733 9.37 0.00 0.00 0.00
-87.4734 239.362 26.3531 0.00 0.00 0.00
-74.5616 243.768 27.7505 0.00 0.00 0.00
-60.9525 245.383 28.2628 0.00 0.00 0.00
-47.3014 244.131 27.8655 0.00 0.00 0.00
-34.2655 240.07 26.5777 0.00 0.00 0.00
-22.4726 233.397 24.4613 0.00 0.00 0.00
-87.4734 231.722 41.7469 0.00 0.00 0.00
-74.5616 235.499 44.4108 0.00 0.00 0.00
-60.9525 236.884 45.3876 0.00 0.00 0.00
-47.3014 235.81 44.6302 0.00 0.00 0.00
-34.2655 232.329 42.175 0.00 0.00 0.00
-22.4726 226.608 38.1404 0.00 0.00 0.00
-87.4734 219.786 54.1107 0.00 0.00 0.00
-74.5616 222.581 57.7919 0.00 0.00 0.00
-60.9525 223.606 59.1417 0.00 0.00 0.00
-47.3014 222.811 58.095 0.00 0.00 0.00
-34.2655 220.235 54.7023 0.00 0.00 0.00
-22.4726 216.002 49.127 0.00 0.00 0.00
-87.4734 204.67 62.2876 0.00 0.00 0.00
-74.5616 206.222 66.6415 0.00 0.00 0.00
-60.9525 206.791 68.238 0.00 0.00 0.00
-47.3014 206.35 67 0.00 0.00 0.00
-34.2655 204.92 62.9873 0.00 0.00 0.00
-22.4726 202.57 56.393 0.00 0.00 0.00
-87.4734 187.79 65.5122 0.00 0.00 0.00
-74.5616 187.953 70.1315 0.00 0.00 0.00
-60.9525 188.013 71.8252 0.00 0.00 0.00
-47.3014 187.966 70.5118 0.00 0.00 0.00
-34.2655 187.816 66.2545 0.00 0.00 0.00
-22.4726 187.57 59.2584 0.00 0.00 0.00
-97.2734 241.99 9.37 0.00 0.00 0.00
-84.3616 246.613 9.37 0.00 0.00 0.00
-70.7525 248.307 9.37 0.00 0.00 0.00
-57.1014 246.993 9.37 0.00 0.00 0.00
-44.0655 242.733 9.37 0.00 0.00 0.00
-32.2726 235.733 9.37 0.00 0.00 0.00
-97.2734 239.362 26.3531 0.00 0.00 0.00
-84.3616 243.768 27.7505 0.00 0.00 0.00
-70.7525 245.383 28.2628 0.00 0.00 0.00
-57.1014 244.131 27.8655 0.00 0.00 0.00
-44.0655 240.07 26.5777 0.00 0.00 0.00
-32.2726 233.397 24.4613 0.00 0.00 0.00
-97.2734 231.722 41.7469 0.00 0.00 0.00
-84.3616 235.499 44.4108 0.00 0.00 0.00
-70.7525 236.884 45.3876 0.00 0.00 0.00
-57.1014 235.81 44.6302 0.00 0.00 0.00
-44.0655 232.329 42.175 0.00 0.00 0.00
-32.2726 226.608 38.1404 0.00 0.00 0.00
-97.2734 219.786 54.1107 0.00 0.00 0.00
-84.3616 222.581 57.7919 0.00 0.00 0.00
-70.7525 223.606 59.1417 0.00 0.00 0.00
-57.1014 222.811 58.095 0.00 0.00 0.00
-44.0655 220.235 54.7023 0.00 0.00 0.00
-32.2726 216.002 49.127 0.00 0.00 0.00
-97.2734 204.67 62.2876 0.00 0.00 0.00
-84.3616 206.222 66.6415 0.00 0.00 0.00
-70.7525 206.791 68.238 0.00 0.00 0.00
-57.1014 206.35 67 0.00 0.00 0.00
-44.0655 204.92 62.9873 0.00 0.00 0.00
-32.2726 202.57 56.393 0.00 0.00 0.00
-97.2734 187.79 65.5122 0.00 0.00 0.00
-84.3616 187.953 70.1315 0.00 0.00 0.00
-70.7525 188.013 71.8252 0.00 0.00 0.00
-57.1014 187.966 70.5118 0.00 0.00 0.00
-44.0655 187.816 66.2545 0.00 0.00 0.00
-32.2726 187.57 59.2584 0.00 0.00 0.00
-107.073 241.99 9.37 0.00 0.00 0.00
-94.1616 246.613 9.37 0.00 0.00 0.00
-80.5525 248.307 9.37 0.00 0.00 0.00
-66.9014 246.993 9.37 0.00 0.00 0.00
-53.8655 242.733 9.37 0.00 0.00 0.00
-42.0726 235.733 9.37 0.00 0.00 0.00
-107.073 239.362 26.3531 0.00 0.00 0.00
-94.1616 243.768 27.7505 0.00 0.00 0.00
-80.5525 245.383 28.2628 0.00 0.00 0.00
-66.9014 244.131 27.8655 0.00 0.00 0.00
-53.8655 240.07 26.5777 0.00 0.00 0.00
-42.0726 233.397 24.4613 0.00 0.00 0.00
-107.073 231.722 41.7469 0.00 0.00 0.00
-94.1616 235.499 44.4108 0.00 0.00 0.00
-80.5525 236.884 45.3876 0.00 0.00 0.00
-66.9014 235.81 44.6302 0.00 0.00 0.00
-53.8655 232.329 42.175 0.00 0.00 0.00
-42.0726 226.608 38.1404 0.00 0.00 0.00
-107.073 219.786 54.1107 0.00 0.00 0.00
-94.1616 222.581 57.7919 0.00 0.00 0.00
-80.5525 223.606 59.1417 0.00 0.00 0.00
-66.9014 222.811 58.095 0.00 0.00 0.00
-53.8655 220.235 54.7023 0.00 0.00 0.00
-42.0726 216.002 49.127 0.00 0.00 0.00
-107.073 204.67 62.2876 0.00 0.00 0.00
-94.1616 206.222 66.6415 0.00 0.00 0.00
-80.5525 206.791 68.238 0.00 0.00 0.00
-66.9014 206.35 67 0.00 0.00 0.00
-53.8655 204.92 62.9873 0.00 0.00 0.00
-42.0726 202.57 56.393 0.00 0.00 0.00
-107.073 187.79 65.5122 0.00 0.00 0.00
-94.1616 187.953 70.1315 0.00 0.00 0.00
-80.5525 188.013 71.8252 0.00 0.00 0.00
-66.9014 187.966 70.5118 0.00 0.00 0.00
-53.8655 187.816 66.2545 0.00 0.00 0.00
-42.0726 187.57 59.2584 0.00 0.00 0.00
-58.0734 241.99 3.80556 0.00 0.00 0.00
-45.1616 246.613 3.80556 0.00 0.00 0.00
-31.5525 248.307 3.80556 0.00 0.00 0.00
-17.9014 246.993 3.80556 0.00 0.00 0.00
-4.86555 242.733 3.80556 0.00 0.00 0.00
6.92736 235.733 3.80556 0.00 0.00 0.00
-58.0734 239.362 20.7887 0.00 0.00 0.00
-45.1616 243.768 22.186 0.00 0.00 0.00
-31.5525 245.383 22.6984 0.00 0.00 0.00
-17.9014 244.131 22.3011 0.00 0.00 0.00
-4.86555 240.07 21.0132 0.00 0.00 0.00
6.92736 233.397 18.8969 0.00 0.00 0.00
-58.0734 231.722 36.1825 0.00 0.00 0.00
-45.1616 235.499 38.8464 0.00 0.00 0.00
-31.5525 236.884 39.8231 0.00 0.00 0.00
-17.9014 235.81 39.0657 0.00 0.00 0.00
-4.86555 232.329 36.6106 0.00 0.00 0.00
6.92736 226.608 32.5759 0.00 0.00 0.00
-58.0734 219.786 48.5463 0.00 0.00 0.00
-45.1616 222.581 52.2275 0.00 0.00 0.00
-31.5525 223.606 53.5773 0.00 0.00 0.00
-17.9014 222.811 52.5306 0.00 0.00 0.00
-4.86555 220.235 49.1379 0.00 0.00 0.00
6.92736 216.002 43.5625 0.00 0.00 0.00
-58.0734 204.67 56.7231 0.00 0.00 0.00
-45.1616 206.222 61.0771 0.00 0.00 0.00
-31.5525 206.791 62.6735 0.00 0.00 0.00
-17.9014 206.35 61.4356 0.00 0.00 0.00
-4.86555 204.92 57.4229 0.00 0.00 0.00
6.92736 202.57 50.8285 0.00 0.00 0.00
-58.0734 187.79 59.9477 0.00 0.00 0.00
-45.1616 187.953 64.567 0.00 0.00 0.00
-31.5525 188.013 66.2608 0.00 0.00 0.00
-17.9014 187.966 64.9474 0.00 0.00 0.00
-4.86555 187.816 60.6901 0.00 0.00 0.00
6.92736 187.57 53.6939 0.00 0.00 0.00
-67.8734 241.99 3.80556 0.00 0.00 0.00
-54.9616 246.613 3.80556 0.00 0.00 0.00
-41.3525 248.307 3.80556 0.00 0.00 0.00
-27.7014 246.993 3.80556 0.00 0.00 0.00
-14.6655 242.733 3.80556 0.00 0.00 0.00
-2.87264 235.733 3.80556 0.00 0.00 0.00
-67.8734 239.362 20.7887 0.00 0.00 0.00
-54.9616 243.768 22.186 0.00 0.00 0.00
-41.3525 245.383 22.6984 0.00 0.00 0.00
-27.7014 244.131 22.3011 0.00 0.00 0.00
-14.6655 240.07 21.0132 0.00 0.00 0.00
-2.87264 233.397 18.8969 0.00 0.00 0.00
-67.8734 231.722 36.1825 0.00 0.00 0.00
-54.9616 235.499 38.8464 0.00 0.00 0.00
-41.3525 236.884 39.8231 0.00 0.00 0.00
-27.7014 235.81 39.0657 0.00 0.00 0.00
-14.6655 232.329 36.6106 0.00 0.00 0.00
-2.87264 226.608 32.5759 0.00 0.00 0.00
-67.8734 219.786 48.5463 0.00 0.00 0.00
-54.9616 222.581 52.2275 0.00 0.00 0.00
-41.3525 223.606 53.5773 0.00 0.00 0.00
-27.7014 222.811 52.5306 0.00 0.00 0.00
-14.6655 220.235 49.1379 0.00 0.00 0.00
-2.87264 216.002 43.5625 0.00 0.00 0.00
-67.8734 204.67 56.7231 0.00 0.00 0.00
-54.9616 206.222 61.0771 0.00 0.00 0.00
-41.3525 206.791 62.6735 0.00 0.00 0.00
-27.7014 206.35 61.4356 0.00 0.00 0.00
-14.6655 204.92 57.4229 0.00 0.00 0.00
-2.87264 202.57 50.8285 0.00 0.00 0.00
-67.8734 187.79 59.9477 0.00 0.00 0.00
-54.9616 187.953 64.567 0.00 0.00 0.00
-41.3525 188.013 66.2608 0.00 0.00 0.00
-27.7014 187.966 64.9474 0.00 0.00 0.00
-14.6655 187.816 60.6901 0.00 0.00 0.00
-2.87264 187.57 53.6939 0.00 0.00 0.00
-77.6734 241.99 3.80556 0.00 0.00 0.00
-64.7616 246.613 3.80556 0.00 0.00 0.00
-51.1525 248.307 3.80556 0.00 0.00 0.00
-37.5014 246.993 3.80556 0.00 0.00 0.00
-24.4655 242.733 3.80556 0.00 0.00 0.00
-12.6726 235.733 3.80556 0.00 0.00 0.00
-77.6734 239.362 20.7887 0.00 0.00 0.00
-64.7616 243.768 22.186 0.00 0.00 0.00
-51.1525 245.383 22.6984 0.00 0.00 0.00
-37.5014 244.131 22.3011 0.00 0.00 0.00
-24.4655 240.07 21.0132 0.00 0.00 0.00
-12.6726 233.397 18.8969 0.00 0.00 0.00
-77.6734 231.722 36.1825 0.00 0.00 0.00
-64.7616 235.499 38.8464 0.00 0.00 0.00
-51.1525 236.884 39.8231 0.00 0.00 0.00
-37.5014 235.81 39.0657 0.00 0.00 0.00
-24.4655 232.329 36.6106 0.00 0.00 0.00
-12.6726 226.608 32.5759 0.00 0.00 0.00
-77.6734 219.786 48.5463 0.00 0.00 0.00
-64.7616 222.581 52.2275 0.00 0.00 0.00
-51.1525 223.606 53.5773 0.00 0.00 0.00
-37.5014 222.811 52.5306 0.00 0.00 0.00
-24.4655 220.235 49.1379 0.00 0.00 0.00
-12.6726 216.002 43.5625 0.00 0.00 0.00
-77.6734 204.67 56.7231 0.00 0.00 0.00
-64.7616 206.222 61.0771 0.00 0.00 0.00
-51.1525 206.791 62.6735 0.00 0.00 0.00
-37.5014 206.35 61.4356 0.00 0.00 0.00
-24.4655 204.92 57.4229 0.00 0.00 0.00
-12.6726 202.57 50.8285 0.00 0.00 0.00
-77.6734 187.79 59.9477 0.00 0.00 0.00
-64.7616 187.953 64.567 0.00 0.00 0.00
-51.1525 188.013 66.2608 0.00 0.00 0.00
-37.5014 187.966 64.9474 0.00 0.00 0.00
-24.4655 187.816 60.6901 0.00 0.00 0.00
-12.6726 187.57 53.6939 0.00 0.00 0.00
-87.4734 241.99 3.80556 0.00 0.00 0.00
-74.5616 246.613 3.80556 0.00 0.00 0.00
-60.9525 248.307 3.80556 0.00 0.00 0.00
-47.3014 246.993 3.80556 0.00 0.00 0.00
-34.2655 242.733 3.80556 0.00 0.00 0.00
-22.4726 235.733 3.80556 0.00 0.00 0.00
-87.4734 239.362 20.7887 0.00 0.00 0.00
-74.5616 243.768 22.186 0.00 0.00 0.00
-60.9525 245.383 22.6984 0.00 0.00 0.00
-47.3014 244.131 22.3011 0.00 0.00 0.00
-34.2655 240.07 21.0132 0.00 0.00 0.00
-22.4726 233.397 18.8969 0.00 0.00 0.00
-87.4734 231.722 36.1825 0.00 0.00 0.00
-74.5616 235.499 38.8464 0.00 0.00 0.00
-60.9525 236.884 39.8231 0.00 0.00 0.00
-47.3014 235.81 39.0657 0.00 0.00 0.00
-34.2655 232.329 36.6106 0.00 0.00 0.00
-22.4726 226.608 32.5759 0.00 0.00 0.00
-87.4734 219.786 48.5463 0.00 0.00 0.00
-74.5616 222.581 52.2275 0.00 0.00 0.00
-60.9525 223.606 53.5773 0.00 0.00 0.00
-47.3014 222.811 52.5306 0.00 0.00 0.00
-34.2655 220.235 49.1379 0.00 0.00 0.00
-22.4726 216.002 43.5625 0.00 0.00 0.00
-87.4734 204.67 56.7231 0.00 0.00 0.00
-74.5616 206.222 61.0771 0.00 0.00 0.00
-60.9525 206.791 62.6735 0.00 0.00 0.00
-47.3014 206.35 61.4356 0.00 0.00 0.00
-34.2655 204.92 57.4229 0.00 0.00 0.00
-22.4726 202.57 50.8285 0.00 0.00 0.00
-87.4734 187.79 59.9477 0.00 0.00 0.00
-74.5616 187.953 64.567 0.00 0.00 0.00
-60.9525 188.013 66.2608 0.00 0.00 0.00
-47.3014 187.966 64.9474 0.00 0.00 0.00
-34.2655 187.816 60.6901 0.00 0.00 0.00
-22.4726 187.57 53.6939 0.00 0.00 0.00
-97.2734 241.99 3.80556 0.00 0.00 0.00
-84.3616 246.613 3.80556 0.00 0.00 0.00
-70.7525 248.307 3.80556 0.00 0.00 0.00
-57.1014 246.993 3.80556 0.00 0.00 0.00
-44.0655 242.733 3.80556 0.00 0.00 0.00
-32.2726 235.733 3.80556 0.00 0.00 0.00
-97.2734 239.362 20.7887 0.00 0.00 0.00
-84.3616 243.768 22.186 0.00 0.00 0.00
-70.7525 245.383 22.6984 0.00 0.00 0.00
-57.1014 244.131 22.3011 0.00 0.00 0.00
-44.0655 240.07 21.0132 0.00 0.00 0.00
-32.2726 233.397 18.8969 0.00 0.00 0.00
-97.2734 231.722 36.1825 0.00 0.00 0.00
-84.3616 235.499 38.8464 0.00 0.00 0.00
-70.7525 236.884 39.8231 0.00 0.00 0.00
-57.1014 235.81 39.0657 0.00 0.00 0.00
-44.0655 232.329 36.6106 0.00 0.00 0.00
-32.2726 226.608 32.5759 0.00 0.00 0.00
-97.2734 219.786 48.5463 0.00 0.00 0.00
-84.3616 222.581 52.2275 0.00 0.00 0.00
-70.7525 223.606 53.5773 0.00 0.00 0.00
-57.1014 222.811 52.5306 0.00 0.00 0.00
-44.0655 220.235 49.1379 0.00 0.00 0.00
-32.2726 216.002 43.5625 0.00 0.00 0.00
-97.2734 204.67 56.7231 0.00 0.00 0.00
-84.3616 206.222 61.0771 0.00 0.00 0.00
-70.7525 206.791 62.6735 0.00 0.00 0.00
-57.1014 206.35 61.4356 0.00 0.00 0.00
-44.0655 204.92 57.4229 0.00 0.00 0.00
-32.2726 202.57 50.8285 0.00 0.00 0.00
-97.2734 187.79 59.9477 0.00 0.00 0.00
-84.3616 187.953 64.567 0.00 0.00 0.00
-70.7525 188.013 66.2608 0.00 0.00 0.00
-57.1014 187.966 64.9474 0.00 0.00 0.00
-44.0655 187.816 60.6901 0.00 0.00 0.00
-32.2726 187.57 53.6939 0.00 0.00 0.00
-107.073 241.99 3.80556 0.00 0.00 0.00
-94.1616 246.613 3.80556 0.00 0.00 0.00
-80.5525 248.307 3.80556 0.00 0.00 0.00
-66.9014 246.993 3.80556 0.00 0.00 0.00
-53.8655 242.733 3.80556 0.00 0.00 0.00
-42.0726 235.733 3.80556 0.00 0.00 0.00
-107.073 239.362 20.7887 0.00 0.00 0.00
-94.1616 243.768 22.186 0.00 0.00 0.00
-80.5525 245.383 22.6984 0.00 0.00 0.00
-66.9014 244.131 22.3011 0.00 0.00 0.00
-53.8655 240.07 21.0132 0.00 0.00 0.00
-42.0726 233.397 18.8969 0.00 0.00 0.00
-107.073 231.722 36.1825 0.00 0.00 0.00
-94.1616 235.499 38.8464 0.00 0.00 0.00
-80.5525 236.884 39.8231 0.00 0.00 0.00
-66.9014 235.81 39.0657 0.00 0.00 0.00
-53.8655 232.329 36.6106 0.00 0.00 0.00
-42.0726 226.608 32.5759 0.00 0.00 0.00
-107.073 219.786 48.5463 0.00 0.00 0.00
-94.1616 222.581 52.2275 0.00 0.00 0.00
-80.5525 223.606 53.5773 0.00 0.00 0.00
-66.9014 222.811 52.5306 0.00 0.00 0.00
-53.8655 220.235 49.1379 0.00 0.00 0.00
-42.0726 216.002 43.5625 0.00 0.00 0.00
-107.073 204.67 56.7231 0.00 0.00 0.00
-94.1616 206.222 61.0771 0.00 0.00 0.00
-80.5525 206.791 62.6735 0.00 0.00 0.00
-66.9014 206.35 61.4356 0.00 0.00 0.00
-53.8655 204.92 57.4229 0.00 0.00 0.00
-42.0726 202.57 50.8285 0.00 0.00 0.00
-107.073 187.79 59.9477 0.00 0.00 0.00
-94.1616 187.953 64.567 0.00 0.00 0.00
-80.5525 188.013 66.2608 0.00 0.00 0.00
-66.9014 187.966 64.9474 0.00 0.00 0.00
-53.8655 187.816 60.6901 0.00 0.00 0.00
-42.0726 187.57 53.6939 0.00 0.00 0.00
-58.0734 241.99 -1.75889 0.00 0.00 0.00
-45.1616 246.613 -1.75889 0.00 0.00 0.00
-31.5525 248.307 -1.75889 0.00 0.00 0.00
-17.9014 246.993 -1.75889 0.00 0.00 0.00
-4.86555 242.733 -1.75889 0.00 0.00 0.00
6.92736 235.733 -1.75889 0.00 0.00 0.00
-58.0734 239.362 15.2242 0.00 0.00 0.00
-45.1616 243.768 16.6216 0.00 0.00 0.00
-31.5525 245.383 17.1339 0.00 0.00 0.00
-17.9014 244.131 16.7366 0.00 0.00 0.00
-4.86555 240.07 15.4488 0.00 0.00 0.00
6.92736 233.397 13.3324 0.00 0.00 0.00
-58.0734 231.722 30.618 0.00 0.00 0.00
-45.1616 235.499 33.2819 0.00 0.00 0.00
-31.5525 236.884 34.2587 0.00 0.00 0.00
-17.9014 235.81 33.5013 0.00 0.00 0.00
-4.86555 232.329 31.0461 0.00 0.00 0.00
6.92736 226.608 27.0115 0.00 0.00 0.00
-58.0734 219.786 42.9818 0.00 0.00 0.00
-45.1616 222.581 46.663 0.00 0.00 0.00
-31.5525 223.606 48.0128 0.00 0.00 0.00
-17.9014 222.811 46.9661 0.00 0.00 0.00
-4.86555 220.235 43.5735 0.00 0.00 0.00
6.92736 216.002 37.9981 0.00 0.00 0.00
-58.0734 204.67 51.1587 0.00 0.00 0.00
-45.1616 206.222 55.5127 0.00 0.00 0.00
-31.5525 206.791 57.1091 0.00 0.00 0.00
-17.9014 206.35 55.8712 0.00 0.00 0.00
-4.86555 204.92 51.8584 0.00 0.00 0.00
6.92736 202.57 45.2641 0.00 0.00 0.00
-58.0734 187.79 54.3833 0.00 0.00 0.00
-45.1616 187.953 59.0026 0.00 0.00 0.00
-31.5525 188.013 60.6963 0.00 0.00 0.00
-17.9014 187.966 59.3829 0.00 0.00 0.00
-4.86555 187.816 55.1257 0.00 0.00 0.00
6.92736 187.57 48.1295 0.00 0.00 0.00
-67.8734 241.99 -1.75889 0.00 0.00 0.00
-54.9616 246.613 -1.75889 0.00 0.00 0.00
-41.3525 248.307 -1.75889 0.00 0.00 0.00
-27.7014 246.993 -1.75889 0.00 0.00 0.00
-14.6655 242.733 -1.75889 0.00 0.00 0.00
-2.87264 235.733 -1.75889 0.00 0.00 0.00
-67.8734 239.362 15.2242 0.00 0.00 0.00
-54.9616 243.768 16.6216 0.00 0.00 0.00
-41.3525 245.383 17.1339 0.00 0.00 0.00
-27.7014 244.131 16.7366 0.00 0.00 0.00
-14.6655 240.07 15.4488 0.00 0.00 0.00
-2.87264 233.397 13.3324 0.00 0.00 0.00
-67.8734 231.722 30.618 0.00 0.00 0.00
-54.9616 235.499 33.2819 0.00 0.00 0.00
-41.3525 236.884 34.2587 0.00 0.00 0.00
-27.7014 235.81 33.5013 0.00 0.00 0.00
-14.6655 232.329 31.0461 0.00 0.00 0.00
-2.87264 226.608 27.0115 0.00 0.00 0.00
-67.8734 219.786 42.9818 0.00 0.00 0.00
-54.9616 222.581 46.663 0.00 0.00 0.00
-41.3525 223.606 48.0128 0.00 0.00 0.00
-27.7014 222.811 46.9661 0.00 0.00 0.00
-14.6655 220.235 43.5735 0.00 0.00 0.00
-2.87264 216.002 37.9981 0.00 0.00 0.00
-67.8734 204.67 51.1587 0.00 0.00 0.00
-54.9616 206.222 55.5127 0.00 0.00 0.00
-41.3525 206.791 57.1091 0.00 0.00 0.00
-27.7014 206.35 55.8712 0.00 0.00 0.00
-14.6655 204.92 51.8584 0.00 0.00 0.00
-2.87264 202.57 45.2641 0.00 0.00 0.00
-67.8734 187.79 54.3833 0.00 0.00 0.00
-54.9616 187.953 59.0026 0.00 0.00 0.00
-41.3525 188.013 60.6963 0.00 0.00 0.00
-27.7014 187.966 59.3829 0.00 0.00 0.00
-14.6655 187.816 55.1257 0.00 0.00 0.00
-2.87264 187.57 48.1295 0.00 0.00 0.00
-77.6734 241.99 -1.75889 0.00 0.00 0.00
-64.7616 246.613 -1.75889 0.00 0.00 0.00
-51.1525 248.307 -1.75889 0.00 0.00 0.00
-37.5014 246.993 -1.75889 0.00 0.00 0.00
-24.4655 242.733 -1.75889 0.00 0.00 0.00
-12.6726 235.733 -1.75889 0.00 0.00 0.00
-77.6734 239.362 15.2242 0.00 0.00 0.00
-64.7616 243.768 16.6216 0.00 0.00 0.00
-51.1525 245.383 17.1339 0.00 0.00 0.00
-37.5014 244.131 16.7366 0.00 0.00 0.00
-24.4655 240.07 15.4488 0.00 0.00 0.00
-12.6726 233.397 13.3324 0.00 0.00 0.00
-77.6734 231.722 30.618 0.00 0.00 0.00
-64.7616 235.499 33.2819 0.00 0.00 0.00
-51.1525 236.884 34.2587 0.00 0.00 0.00
-37.5014 235.81 33.5013 0.00 0.00 0.00
-24.4655 232.329 31.0461 0.00 0.00 0.00
-12.6726 226.608 27.0115 0.00 0.00 0.00
-77.6734 219.786 42.9818 0.00 0.00 0.00
-64.7616 222.581 46.663 0.00 0.00 0.00
-51.1525 223.606 48.0128 0.00 0.00 0.00
-37.5014 222.811 46.9661 0.00 0.00 0.00
-24.4655 220.235 43.5735 0.00 0.00 0.00
-12.6726 216.002 37.9981 0.00 0.00 0.00
-77.6734 204.67 51.1587 0.00 0.00 0.00
-64.7616 206.222 55.5127 0.00 0.00 0.00
-51.1525 206.791 57.1091 0.00 0.00 0.00
-37.5014 206.35 55.8712 0.00 0.00 0.00
-24.4655 204.92 51.8584 0.00 0.00 0.00
-12.6726 202.57 45.2641 0.00 0.00 0.00
-77.6734 187.79 54.3833 0.00 0.00 0.00
-64.7616 187.953 59.0026 0.00 0.00 0.00
-51.1525 188.013 60.6963 0.00 0.00 0.00
-37.5014 187.966 59.3829 0.00 0.00 0.00
-24.4655 187.816 55.1257 0.00 0.00 0.00
-12.6726 187.57 48.1295 0.00 0.00 0.00
-87.4734 241.99 -1.75889 0.00 0.00 0.00
-74.5616 246.613 -1.75889 0.00 0.00 0.00
-60.9525 248.307 -1.75889 0.00 0.00 0.00
-47.3014 246.993 -1.75889 0.00 0.00 0.00
-34.2655 242.733 -1.75889 0.00 0.00 0.00
-22.4726 235.733 -1.75889 0.00 0.00 0.00
-87.4734 239.362 15.2242 0.00 0.00 0.00
-74.5616 243.768 16.6216 0.00 0.00 0.00
-60.9525 245.383 17.1339 0.00 0.00 0.00
-47.3014 244.131 16.7366 0.00 0.00 0.00
-34.2655 240.07 15.4488 0.00 0.00 0.00
-22.4726 233.397 13.3324 0.00 0.00 0.00
-87.4734 231.722 30.618 0.00 0.00 0.00
-74.5616 235.499 33.2819 0.00 0.00 0.00
-60.9525 236.884 34.2587 0.00 0.00 0.00
-47.3014 235.81 33.5013 0.00 0.00 0.00
-34.2655 232.329 31.0461 0.00 0.00 0.00
-22.4726 226.608 27.0115 0.00 0.00 0.00
-87.4734 219.786 42.9818 0.00 0.00 0.00
-74.5616 222.581 46.663 0.00 0.00 0.00
-60.9525 223.606 48.0128 0.00 0.00 0.00
-47.3014 222.811 46.9661 0.00 0.00 0.00
-34.2655 220.235 43.5735 0.00 0.00 0.00
-22.4726 216.002 37.9981 0.00 0.00 0.00
-87.4734 204.67 51.1587 0.00 0.00 0.00
-74.5616 206.222 55.5127 0.00 0.00 0.00
-60.9525 206.791 57.1091 0.00 0.00 0.00
-47.3014 206.35 55.8712 0.00 0.00 0.00
-34.2655 204.92 51.8584 0.00 0.00 0.00
-22.4726 202.57 45.2641 0.00 0.00 0.00
-87.4734 187.79 54.3833 0.00 0.00 0.00
-74.5616 187.953 59.0026 0.00 0.00 0.00
-60.9525 188.013 60.6963 0.00 0.00 0.00
-47.3014 187.966 59.3829 0.00 0.00 0.00
-34.2655 187.816 55.1257 0.00 0.00 0.00
-22.4726 187.57 48.1295 0.00 0.00 0.00
-97.2734 241.99 -1.75889 0.00 0.00 0.00
-84.3616 246.613 -1.75889 0.00 0.00 0.00
-70.7525 248.307 -1.75889 0.00 0.00 0.00
-57.1014 246.993 -1.75889 0.00 0.00 0.00
-44.0655 242.733 -1.75889 0.00 0.00 0.00
-32.2726 235.733 -1.75889 0.00 0.00 0.00
-97.2734 239.362 15.2242 0.00 0.00 0.00
-84.3616 243.768 16.6216 0.00 0.00 0.00
-70.7525 245.383 17.1339 0.00 0.00 0.00
-57.1014 244.131 16.7366 0.00 0.00 0.00
-44.0655 240.07 15.4488 0.00 0.00 0.00
-32.2726 233.397 13.3324 0.00 0.00 0.00
-97.2734 231.722 30.618 0.00 0.00 0.00
-84.3616 235.499 33.2819 0.00 0.00 0.00
-70.7525 236.884 34.2587 0.00 0.00 0.00
-57.1014 235.81 33.5013 0.00 0.00 0.00
-44.0655 232.329 31.0461 0.00 0.00 0.00
-32.2726 226.608 27.0115 0.00 0.00 0.00
-97.2734 219.786 42.9818 0.00 0.00 0.00
-84.3616 222.581 46.663 0.00 0.00 0.00
-70.7525 223.606 48.0128 0.00 0.00 0.00
-57.1014 222.811 46.9661 0.00 0.00 0.00
-44.0655 220.235 43.5735 0.00 0.00 0.00
-32.2726 216.002 37.9981 0.00 0.00 0.00
-97.2734 204.67 51.1587 0.00 0.00 0.00
-84.3616 206.222 55.5127 0.00 0.00 0.00
-70.7525 206.791 57.1091 0.00 0.00 0.00
-57.1014 206.35 55.8712 0.00 0.00 0.00
-44.0655 204.92 51.8584 0.00 0.00 0.00
-32.2726 202.57 45.2641 0.00 0.00 0.00
-97.2734 187.79 54.3833 0.00 0.00 0.00
-84.3616 187.953 59.0026 0.00 0.00 0.00
-70.7525 188.013 60.6963 0.00 0.00 0.00
-57.1014 187.966 59.3829 0.00 0.00 0.00
-44.0655 187.816 55.1257 0.00 0.00 0.00
-32.2726 187.57 48.1295 0.00 0.00 0.00
-107.073 241.99 -1.75889 0.00 0.00 0.00
-94.1616 246.613 -1.75889 0.00 0.00 0.00
-80.5525 248.307 -1.75889 0.00 0.00 0.00
-66.9014 246.993 -1.75889 0.00 0.00 0.00
-53.8655 242.733 -1.75889 0.00 0.00 0.00
-42.0726 235.733 -1.75889 0.00 0.00 0.00
-107.073 239.362 15.2242 0.00 0.00 0.00
-94.1616 243.768 16.6216 0.00 0.00 0.00
-80.5525 245.383 17.1339 0.00 0.00 0.00
-66.9014 244.131 16.7366 0.00 0.00 0.00
-53.8655 240.07 15.4488 0.00 0.00 0.00
-42.0726 233.397 13.3324 0.00 0.00 0.00
-107.073 231.722 30.618 0.00 0.00 0.00
-94.1616 235.499 33.2819 0.00 0.00 0.00
-80.5525 236.884 34.2587 0.00 0.00 0.00
-66.9014 235.81 33.5013 0.00 0.00 0.00
-53.8655 232.329 31.0461 0.00 0.00 0.00
-42.0726 226.608 27.0115 0.00 0.00 0.00
-107.073 219.786 42.9818 0.00 0.00 0.00
-94.1616 222.581 46.663 0.00 0.00 0.00
-80.5525 223.606 48.0128 0.00 0.00 0.00
-66.9014 222.811 46.9661 0.00 0.00 0.00
-53.8655 220.235 43.5735 0.00 0.00 0.00
-42.0726 216.002 37.9981 0.00 0.00 0.00
-107.073 204.67 51.1587 0.00 0.00 0.00
-94.1616 206.222 55.5127 0.00 0.00 0.00
-80.5525 206.791 57.1091 0.00 0.00 0.00
-66.9014 206.35 55.8712 0.00 0.00 0.00
-53.8655 204.92 51.8584 0.00 0.00 0.00
-42.0726 202.57 45.2641 0.00 0.00 0.00
-107.073 187.79 54.3833 0.00 0.00 0.00
-94.1616 187.953 59.0026 0.00 0.00 0.00
-80.5525 188.013 60.6963 0.00 0.00 0.00
-66.9014 187.966 59.3829 0.00 0.00 0.00
-53.8655 187.816 55.1257 0.00 0.00 0.00
-42.0726 187.57 48.1295 0.00 0.00 0.00
-58.0734 241.99 -7.32333 0.00 0.00 0.00
-45.1616 246.613 -7.32333 0.00 0.00 0.00
-31.5525 248.307 -7.32333 0.00 0.00 0.00
-17.9014 246.993 -7.32333 0.00 0.00 0.00
-4.86555 242.733 -7.32333 0.00 0.00 0.00
6.92736 235.733 -7.32333 0.00 0.00 0.00
-58.0734 239.362 9.65979 0.00 0.00 0.00
-45.1616 243.768 11.0571 0.00 0.00 0.00
-31.5525 245.383 11.5695 0.00 0.00 0.00
-17.9014 244.131 11.1722 0.00 0.00 0.00
-4.86555 240.07 9.88436 0.00 0.00 0.00
6.92736 233.397 7.768 0.00 0.00 0.00
-58.0734 231.722 25.0536 0.00 0.00 0.00
-45.1616 235.499 27.7175 0.00 0.00 0.00
-31.5525 236.884 28.6943 0.00 0.00 0.00
-17.9014 235.81 27.9368 0.00 0.00 0.00
-4.86555 232.329 25.4817 0.00 0.00 0.00
6.92736 226.608 21.447 0.00 0.00 0.00
-58.0734 219.786 37.4174 0.00 0.00 0.00
-45.1616 222.581 41.0986 0.00 0.00 0.00
-31.5525 223.606 42.4484 0.00 0.00 0.00
-17.9014 222.811 41.4017 0.00 0.00 0.00
-4.86555 220.235 38.009 0.00 0.00 0.00
6.92736 216.002 32.4336 0.00 0.00 0.00
-58.0734 204.67 45.5942 0.00 0.00 0.00
-45.1616 206.222 49.9482 0.00 0.00 0.00
-31.5525 206.791 51.5447 0.00 0.00 0.00
-17.9014 206.35 50.3067 0.00 0.00 0.00
-4.86555 204.92 46.294 0.00 0.00 0.00
6.92736 202.57 39.6996 0.00 0.00 0.00
-58.0734 187.79 48.8188 0.00 0.00 0.00
-45.1616 187.953 53.4381 0.00 0.00 0.00
-31.5525 188.013 55.1319 0.00 0.00 0.00
-17.9014 187.966 53.8185 0.00 0.00 0.00
-4.86555 187.816 49.5612 0.00 0.00 0.00
6.92736 187.57 42.5651 0.00 0.00 0.00
-67.8734 241.99 -7.32333 0.00 0.00 0.00
-54.9616 246.613 -7.32333 0.00 0.00 0.00
-41.3525 248.307 -7.32333 0.00 0.00 0.00
-27.7014 246.993 -7.32333 0.00 0.00 0.00
-14.6655 242.733 -7.32333 0.00 0.00 0.00
-2.87264 235.733 -7.32333 0.00 0.00 0.00
-67.8734 239.362 9.65979 0.00 0.00 0.00
-54.9616 243.768 11.0571 0.00 0.00 0.00
-41.3525 245.383 11.5695 0.00 0.00 0.00
-27.7014 244.131 11.1722 0.00 0.00 0.00
-14.6655 240.07 9.88436 0.00 0.00 0.00
-2.87264 233.397 7.768 0.00 0.00 0.00
-67.8734 231.722 25.0536 0.00 0.00 0.00
-54.9616 235.499 27.7175 0.00 0.00 0.00
-41.3525 236.884 28.6943 0.00 0.00 0.00
-27.7014 235.81 27.9368 0.00 0.00 0.00
-14.6655 232.329 25.4817 0.00 0.00 0.00
-2.87264 226.608 21.447 0.00 0.00 0.00
-67.8734 219.786 37.4174 0.00 0.00 0.00
-54.9616 222.581 41.0986 0.00 0.00 0.00
-41.3525 223.606 42.4484 0.00 0.00 0.00
-27.7014 222.811 41.4017 0.00 0.00 0.00
-14.6655 220.235 38.009 0.00 0.00 0.00
-2.87264 216.002 32.4336 0.00 0.00 0.00
-67.8734 204.67 45.5942 0.00 0.00 0.00
-54.9616 206.222 49.9482 0.00 0.00 0.00
-41.3525 206.791 51.5447 0.00 0.00 0.00
-27.7014 206.35 50.3067 0.00 0.00 0.00
-14.6655 204.92 46.294 0.00 0.00 0.00
-2.87264 202.57 39.6996 0.00 0.00 0.00
-67.8734 187.79 48.8188 0.00 0.00 0.00
-54.9616 187.953 53.4381 0.00 0.00 0.00
-41.3525 188.013 55.1319 0.00 0.00 0.00
-27.7014 187.966 53.8185 0.00 0.00 0.00
-14.6655 187.816 49.5612 0.00 0.00 0.00
-2.87264 187.57 42.5651 0.00 0.00 0.00
-77.6734 241.99 -7.32333 0.00 0.00 0.00
-64.7616 246.613 -7.32333 0.00 0.00 0.00
-51.1525 248.307 -7.32333 0.00 0.00 0.00
-37.5014 246.993 -7.32333 0.00 0.00 0.00
-24.4655 242.733 -7.32333 0.00 0.00 0.00
-12.6726 235.733 -7.32333 0.00 0.00 0.00
-77.6734 239.362 9.65979 0.00 0.00 0.00
-64.7616 243.768 11.0571 0.00 0.00 0.00
-51.1525 245.383 11.5695 0.00 0.00 0.00
-37.5014 244.131 11.1722 0.00 0.00 0.00
-24.4655 240.07 9.88436 0.00 0.00 0.00
-12.6726 233.397 7.768 0.00 0.00 0.00
-77.6734 231.722 25.0536 0.00 0.00 0.00
-64.7616 235.499 27.7175 0.00 0.00 0.00
-51.1525 236.884 28.6943 0.00 0.00 0.00
-37.5014 235.81 27.9368 0.00 0.00 0.00
-24.4655 232.329 25.4817 0.00 0.00 0.00
-12.6726 226.608 21.447 0.00 0.00 0.00
-77.6734 219.786 37.4174 0.00 0.00 0.00
-64.7616 222.581 41.0986 0.00 0.00 0.00
-51.1525 223.606 42.4484 0.00 0.00 0.00
-37.5014 222.811 41.4017 0.00 0.00 0.00
-24.4655 220.235 38.009 0.00 0.00 0.00
-12.6726 216.002 32.4336 0.00 0.00 0.00
-77.6734 204.67 45.5942 0.00 0.00 0.00
-64.7616 206.222 49.9482 0.00 0.00 0.00
-51.1525 206.791 51.5447 0.00 0.00 0.00
-37.5014 206.35 50.3067 0.00 0.00 0.00
-24.4655 204.92 46.294 0.00 0.00 0.00
-12.6726 202.57 39.6996 0.00 0.00 0.00
-77.6734 187.79 48.8188 0.00 0.00 0.00
-64.7616 187.953 53.4381 0.00 0.00 0.00
-51.1525 188.013 55.1319 0.00 0.00 0.00
-37.5014 187.966 53.8185 0.00 0.00 0.00
-24.4655 187.816 49.5612 0.00 0.00 0.00
-12.6726 187.57 42.5651 0.00 0.00 0.00
-87.4734 241.99 -7.32333 0.00 0.00 0.00
-74.5616 246.613 -7.32333 0.00 0.00 0.00
-60.9525 248.307 -7.32333 0.00 0.00 0.00
-47.3014 246.993 -7.32333 0.00 0.00 0.00
-34.2655 242.733 -7.32333 0.00 0.00 0.00
-22.4726 235.733 -7.32333 0.00 0.00 0.00
-87.4734 239.362 9.65979 0.00 0.00 0.00
-74.5616 243.768 11.0571 0.00 0.00 0.00
-60.9525 245.383 11.5695 0.00 0.00 0.00
-47.3014 244.131 11.1722 0.00 0.00 0.00
-34.2655 240.07 9.88436 0.00 0.00 0.00
-22.4726 233.397 7.768 0.00 0.00 0.00
-87.4734 231.722 25.0536 0.00 0.00 0.00
-74.5616 235.499 27.7175 0.00 0.00 0.00
-60.9525 236.884 28.6943 0.00 0.00 0.00
-47.3014 235.81 27.9368 0.00 0.00 0.00
-34.2655 232.329 25.4817 0.00 0.00 0.00
-22.4726 226.608 21.447 0.00 0.00 0.00
-87.4734 219.786 37.4174 0.00 0.00 0.00
-74.5616 222.581 41.0986 0.00 0.00 0.00
-60.9525 223.606 42.4484 0.00 0.00 0.00
-47.3014 222.811 41.4017 0.00 0.00 0.00
-34.2655 220.235 38.009 0.00 0.00 0.00
-22.4726 216.002 32.4336 0.00 0.00 0.00
-87.4734 204.67 45.5942 0.00 0.00 0.00
-74.5616 206.222 49.9482 0.00 0.00 0.00
-60.9525 206.791 51.5447 0.00 0.00 0.00
-47.3014 206.35 50.3067 0.00 0.00 0.00
-34.2655 204.92 46.294 0.00 0.00 0.00
-22.4726 202.57 39.6996 0.00 0.00 0.00
-87.4734 187.79 48.8188 0.00 0.00 0.00
-74.5616 187.953 53.4381 0.00 0.00 0.00
-60.9525 188.013 55.1319 0.00 0.00 0.00
-47.3014 187.966 53.8185 0.00 0.00 0.00
-34.2655 187.816 49.5612 0.00 0.00 0.00
-22.4726 187.57 42.5651 0.00 0.00 0.00
-97.2734 241.99 -7.32333 0.00 0.00 0.00
-84.3616 246.613 -7.32333 0.00 0.00 0.00
-70.7525 248.307 -7.32333 0.00 0.00 0.00
-57.1014 246.993 -7.32333 0.00 0.00 0.00
-44.0655 242.733 -7.32333 0.00 0.00 0.00
-32.2726 235.733 -7.32333 0.00 0.00 0.00
-97.2734 239.362 9.65979 0.00 0.00 0.00
-84.3616 243.768 11.0571 0.00 0.00 0.00
-70.7525 245.383 11.5695 0.00 0.00 0.00
-57.1014 244.131 11.1722 0.00 0.00 0.00
-44.0655 240.07 9.88436 0.00 0.00 0.00
-32.2726 233.397 7.768 0.00 0.00 0.00
-97.2734 231.722 25.0536 0.00 0.00 0.00
-84.3616 235.499 27.7175 0.00 0.00 0.00
-70.7525 236.884 28.6943 0.00 0.00 0.00
-57.1014 235.81 27.9368 0.00 0.00 0.00
-44.0655 232.329 25.4817 0.00 0.00 0.00
-32.2726 226.608 21.447 0.00 0.00 0.00
-97.2734 219.786 37.4174 0.00 0.00 0.00
-84.3616 222.581 41.0986 0.00 0.00 0.00
-70.7525 223.606 42.4484 0.00 0.00 0.00
-57.1014 222.811 41.4017 0.00 0.00 0.00
-44.0655 220.235 38.009 0.00 0.00 0.00
-32.2726 216.002 32.4336 0.00 0.00 0.00
-97.2734 204.67 45.5942 0.00 0.00 0.00
-84.3616 206.222 49.9482 0.00 0.00 0.00
-70.7525 206.791 51.5447 0.00 0.00 0.00
-57.1014 206.35 50.3067 0.00 0.00 0.00
-44.0655 204.92 46.294 0.00 0.00 0.00
-32.2726 202.57 39.6996 0.00 0.00 0.00
-97.2734 187.79 48.8188 0.00 0.00 0.00
-84.3616 187.953 53.4381 0.00 0.00 0.00
-70.7525 188.013 55.1319 0.00 0.00 0.00
-57.1014 187.966 53.8185 0.00 0.00 0.00
-44.0655 187.816 49.5612 0.00 0.00 0.00
-32.2726 187.57 42.5651 0.00 0.00 0.00
-107.073 241.99 -7.32333 0.00 0.00 0.00
-94.1616 246.613 -7.32333 0.00 0.00 0.00
-80.5525 248.307 -7.32333 0.00 0.00 0.00
-66.9014 246.993 -7.32333 0.00 0.00 0.00
-53.8655 242.733 -7.32333 0.00 0.00 0.00
-42.0726 235.733 -7.32333 0.00 0.00 0.00
-107.073 239.362 9.65979 0.00 0.00 0.00
-94.1616 243.768 11.0571 0.00 0.00 0.00
-80.5525 245.383 11.5695 0.00 0.00 0.00
-66.9014 244.131 11.1722 0.00 0.00 0.00
-53.8655 240.07 9.88436 0.00 0.00 0.00
-42.0726 233.397 7.768 0.00 0.00 0.00
-107.073 231.722 25.0536 0.00 0.00 0.00
-94.1616 235.499 27.7175 0.00 0.00 0.00
-80.5525 236.884 28.6943 0.00 0.00 0.00
-66.9014 235.81 27.9368 0.00 0.00 0.00
-53.8655 232.329 25.4817 0.00 0.00 0.00
-42.0726 226.608 21.447 0.00 0.00 0.00
-107.073 219.786 37.4174 0.00 0.00 0.00
-94.1616 222.581 41.0986 0.00 0.00 0.00
-80.5525 223.606 42.4484 0.00 0.00 0.00
-66.9014 222.811 41.4017 0.00 0.00 0.00
-53.8655 220.235 38.009 0.00 0.00 0.00
-42.0726 216.002 32.4336 0.00 0.00 0.00
-107.073 204.67 45.5942 0.00 0.00 0.00
-94.1616 206.222 49.9482 0.00 0.00 0.00
-80.5525 206.791 51.5447 0.00 0.00 0.00
-66.9014 206.35 50.3067 0.00 0.00 0.00
-53.8655 204.92 46.294 0.00 0.00 0.00
-42.0726 202.57 39.6996 0.00 0.00 0.00
-107.073 187.79 48.8188 0.00 0.00 0.00
-94.1616 187.953 53.4381 0.00 0.00 0.00
-80.5525 188.013 55.1319 0.00 0.00 0.00
-66.9014 187.966 53.8185 0.00 0.00 0.00
-53.8655 187.816 49.5612 0.00 0.00 0.00
-42.0726 187.57 42.5651 0.00 0.00 0.00
-58.0734 246.142 78.51 0.00 0.00 0.00
-45.1616 250.764 78.51 0.00 0.00 0.00
-31.5525 252.459 78.51 0.00 0.00 0.00
-17.9014 251.145 78.51 0.00 0.00 0.00
-4.86555 246.885 78.51 0.00 0.00 0.00
6.92736 239.884 78.51 0.00 0.00 0.00
-58.0734 243.513 95.4931 0.00 0.00 0.00
-45.1616 247.919 96.8905 0.00 0.00 0.00
-31.5525 249.535 97.4028 0.00 0.00 0.00
-17.9014 248.282 97.0055 0.00 0.00 0.00
-4.86555 244.221 95.7177 0.00 0.00 0.00
6.92736 237.548 93.6013 0.00 0.00 0.00
-58.0734 235.873 110.887 0.00 0.00 0.00
-45.1616 239.651 113.551 0.00 0.00 0.00
-31.5525 241.036 114.528 0.00 0.00 0.00
-17.9014 239.962 113.77 0.00 0.00 0.00
-4.86555 236.48 111.315 0.00 0.00 0.00
6.92736 230.76 107.28 0.00 0.00 0.00
-58.0734 223.937 123.251 0.00 0.00 0.00
-45.1616 226.732 126.932 0.00 0.00 0.00
-31.5525 227.757 128.282 0.00 0.00 0.00
-17.9014 226.963 127.235 0.00 0.00 0.00
-4.86555 224.386 123.842 0.00 0.00 0.00
6.92736 220.153 118.267 0.00 0.00 0.00
-58.0734 208.822 131.428 0.00 0.00 0.00
-45.1616 210.373 135.782 0.00 0.00 0.00
-31.5525 210.942 137.378 0.00 0.00 0.00
-17.9014 210.501 136.14 0.00 0.00 0.00
-4.86555 209.071 132.127 0.00 0.00 0.00
6.92736 206.721 125.533 0.00 0.00 0.00
-58.0734 191.942 134.652 0.00 0.00 0.00
-45.1616 192.104 139.271 0.00 0.00 0.00
-31.5525 192.164 140.965 0.00 0.00 0.00
-17.9014 192.118 139.652 0.00 0.00 0.00
-4.86555 191.968 135.395 0.00 0.00 0.00
6.92736 191.722 128.398 0.00 0.00 0.00
-67.8734 246.142 78.51 0.00 0.00 0.00
-54.9616 250.764 78.51 0.00 0.00 0.00
-41.3525 252.459 78.51 0.00 0.00 0.00
-27.7014 251.145 78.51 0.00 0.00 0.00
-14.6655 246.885 78.51 0.00 0.00 0.00
-2.87264 239.884 78.51 0.00 0.00 0.00
-67.8734 243.513 95.4931 0.00 0.00 0.00
-54.9616 247.919 96.8905 0.00 0.00 0.00
-41.3525 249.535 97.4028 0.00 0.00 0.00
-27.7014 248.282 97.0055 0.00 0.00 0.00
-14.6655 244.221 95.7177 0.00 0.00 0.00
-2.87264 237.548 93.6013 0.00 0.00 0.00
-67.8734 235.873 110.887 0.00 0.00 0.00
-54.9616 239.651 113.551 0.00 0.00 0.00
-41.3525 241.036 114.528 0.00 0.00 0.00
-27.7014 239.962 113.77 0.00 0.00 0.00
-14.6655 236.48 111.315 0.00 0.00 0.00
-2.87264 230.76 107.28 0.00 0.00 0.00
-67.8734 223.937 123.251 0.00 0.00 0.00
-54.9616 226.732 126.932 0.00 0.00 0.00
-41.3525 227.757 128.282 0.00 0.00 0.00
-27.7014 226.963 127.235 0.00 0.00 0.00
-14.6655 224.386 123.842 0.00 0.00 0.00
-2.87264 220.153 118.267 0.00 0.00 0.00
-67.8734 208.822 131.428 0.00 0.00 0.00
-54.9616 210.373 135.782 0.00 0.00 0.00
-41.3525 210.942 137.378 0.00 0.00 0.00
-27.7014 210.501 136.14 0.00 0.00 0.00
-14.6655 209.071 132.127 0.00 0.00 0.00
-2.87264 206.721 125.533 0.00 0.00 0.00
-67.8734 191.942 134.652 0.00 0.00 0.00
-54.9616 192.104 139.271 0.00 0.00 0.00
-41.3525 192.164 140.965 0.00 0.00 0.00
-27.7014 192.118 139.652 0.00 0.00 0.00
-14.6655 191.968 135.395 0.00 0.00 0.00
-2.87264 191.722 128.398 0.00 0.00 0.00
-77.6734 246.142 78.51 0.00 0.00 0.00
-64.7616 250.764 78.51 0.00 0.00 0.00
-51.1525 252.459 78.51 0.00 0.00 0.00
-37.5014 251.145 78.51 0.00 0.00 0.00
-24.4655 246.885 78.51 0.00 0.00 0.00
-12.6726 239.884 78.51 0.00 0.00 0.00
-77.6734 243.513 95.4931 0.00 0.00 0.00
-64.7616 247.919 96.8905 0.00 0.00 0.00
-51.1525 249.535 97.4028 0.00 0.00 0.00
-37.5014 248.282 97.0055 0.00 0.00 0.00
-24.4655 244.221 95.7177 0.00 0.00 0.00
-12.6726 237.548 93.6013 0.00 0.00 0.00
-77.6734 235.873 110.887 0.00 0.00 0.00
-64.7616 239.651 113.551 0.00 0.00 0.00
-51.1525 241.036 114.528 0.00 0.00 0.00
-37.5014 239.962 113.77 0.00 0.00 0.00
-24.4655 236.48 111.315 0.00 0.00 0.00
-12.6726 230.76 107.28 0.00 0.00 0.00
-77.6734 223.937 123.251 0.00 0.00 0.00
-64.7616 226.732 126.932 0.00 0.00 0.00
-51.1525 227.757 128.282 0.00 0.00 0.00
-37.5014 226.963 127.235 0.00 0.00 0.00
-24.4655 224.386 123.842 0.00 0.00 0.00
-12.6726 220.153 118.267 0.00 0.00 0.00
-77.6734 208.822 131.428 0.00 0.00 0.00
-64.7616 210.373 135.782 0.00 0.00 0.00
-51.1525 210.942 137.378 0.00 0.00 0.00
-37.5014 210.501 136.14 0.00 0.00 0.00
-24.4655 209.071 132.127 0.00 0.00 0.00
-12.6726 206.721 125.533 0.00 0.00 0.00
-77.6734 191.942 134.652 0.00 0.00 0.00
-64.7616 192.104 139.271 0.00 0.00 0.00
-51.1525 192.164 140.965 0.00 0.00 0.00
-37.5014 192.118 139.652 0.00 0.00 0.00
-24.4655 191.968 135.395 0.00 0.00 0.00
-12.6726 191.722 128.398 0.00 0.00 0.00
-87.4734 246.142 78.51 0.00 0.00 0.00
-74.5616 250.764 78.51 0.00 0.00 0.00
-60.9525 252.459 78.51 0.00 0.00 0.00
-47.3014 251.145 78.51 0.00 0.00 0.00
-34.2655 246.885 78.51 0.00 0.00 0.00
-22.4726 239.884 78.51 0.00 0.00 0.00
-87.4734 243.513 95.4931 0.00 0.00 0.00
-74.5616 247.919 96.8905 0.00 0.00 0.00
-60.9525 249.535 97.4028 0.00 0.00 0.00
-47.3014 248.282 97.0055 0.00 0.00 0.00
-34.2655 244.221 95.7177 0.00 0.00 0.00
-22.4726 237.548 93.6013 0.00 0.00 0.00
-87.4734 235.873 110.887 0.00 0.00 0.00
-74.5616 239.651 113.551 0.00 0.00 0.00
-60.9525 241.036 114.528 0.00 0.00 0.00
-47.3014 239.962 113.77 0.00 0.00 0.00
-34.2655 236.48 111.315 0.00 0.00 0.00
-22.4726 230.76 107.28 0.00 0.00 0.00
-87.4734 223.937 123.251 0.00 0.00 0.00
-74.5616 226.732 126.932 0.00 0.00 0.00
-60.9525 227.757 128.282 0.00 0.00 0.00
-47.3014 226.963 127.235 0.00 0.00 0.00
-34.2655 224.386 123.842 0.00 0.00 0.00
-22.4726 220.153 118.267 0.00 0.00 0.00
-87.4734 208.822 131.428 0.00 0.00 0.00
-74.5616 210.373 135.782 0.00 0.00 0.00
-60.9525 210.942 137.378 0.00 0.00 0.00
-47.3014 210.501 136.14 0.00 0.00 0.00
-34.2655 209.071 132.127 0.00 0.00 0.00
-22.4726 206.721 125.533 0.00 0.00 0.00
-87.4734 191.942 134.652 0.00 0.00 0.00
-74.5616 192.104 139.271 0.00 0.00 0.00
-60.9525 192.164 140.965 0.00 0.00 0.00
-47.3014 192.118 139.652 0.00 0.00 0.00
-34.2655 191.968 135.395 0.00 0.00 0.00
-22.4726 191.722 128.398 0.00 0.00 0.00
-97.2734 246.142 78.51 0.00 0.00 0.00
-84.3616 250.764 78.51 0.00 0.00 0.00
-70.7525 252.459 78.51 0.00 0.00 0.00
-57.1014 251.145 78.51 0.00 0.00 0.00
-44.0655 246.885 78.51 0.00 0.00 0.00
-32.2726 239.884 78.51 0.00 0.00 0.00
-97.2734 243.513 95.4931 0.00 0.00 0.00
-84.3616 247.919 96.8905 0.00 0.00 0.00
-70.7525 249.535 97.4028 0.00 0.00 0.00
-57.1014 248.282 97.0055 0.00 0.00 0.00
-44.0655 244.221 95.7177 0.00 0.00 0.00
-32.2726 237.548 93.6013 0.00 0.00 0.00
-97.2734 235.873 110.887 0.00 0.00 0.00
-84.3616 239.651 113.551 0.00 0.00 0.00
-70.7525 241.036 114.528 0.00 0.00 0.00
-57.1014 239.962 113.77 0.00 0.00 0.00
-44.0655 236.48 111.315 0.00 0.00 0.00
-32.2726 230.76 107.28 0.00 0.00 0.00
-97.2734 223.937 123.251 0.00 0.00 0.00
-84.3616 226.732 126.932 0.00 0.00 0.00
-70.7525 227.757 128.282 0.00 0.00 0.00
-57.1014 226.963 127.235 0.00 0.00 0.00
-44.0655 224.386 123.842 0.00 0.00 0.00
-32.2726 220.153 118.267 0.00 0.00 0.00
-97.2734 208.822 131.428 0.00 0.00 0.00
-84.3616 210.373 135.782 0.00 0.00 0.00
-70.7525 210.942 137.378 0.00 0.00 0.00
-57.1014 210.501 136.14 0.00 0.00 0.00
-44.0655 209.071 132.127 0.00 0.00 0.00
-32.2726 206.721 125.533 0.00 0.00 0.00
-97.2734 191.942 134.652 0.00 0.00 0.00
-84.3616 192.104 139.271 0.00 0.00 0.00
-70.7525 192.164 140.965 0.00 0.00 0.00
-57.1014 192.118 139.652 0.00 0.00 0.00
-44.0655 191.968 135.395 0.00 0.00 0.00
-32.2726 191.722 128.398 0.00 0.00 0.00
-107.073 246.142 78.51 0.00 0.00 0.00
-94.1616 250.764 78.51 0.00 0.00 0.00
-80.5525 252.459 78.51 0.00 0.00 0.00
-66.9014 251.145 78.51 0.00 0.00 0.00
-53.8655 246.885 78.51 0.00 0.00 0.00
-42.0726 239.884 78.51 0.00 0.00 0.00
-107.073 243.513 95.4931 0.00 0.00 0.00
-94.1616 247.919 96.8905 0.00 0.00 0.00
-80.5525 249.535 97.4028 0.00 0.00 0.00
-66.9014 248.282 97.0055 0.00 0.00 0.00
-53.8655 244.221 95.7177 0.00 0.00 0.00
-42.0726 237.548 93.6013 0.00 0.00 0.00
-107.073 235.873 110.887 0.00 0.00 0.00
-94.1616 239.651 113.551 0.00 0.00 0.00
-80.5525 241.036 114.528 0.00 0.00 0.00
-66.9014 239.962 113.77 0.00 0.00 0.00
-53.8655 236.48 111.315 0.00 0.00 0.00
-42.0726 230.76 107.28 0.00 0.00 0.00
-107.073 223.937 123.251 0.00 0.00 0.00
-94.1616 226.732 126.932 0.00 0.00 0.00
-80.5525 227.757 128.282 0.00 0.00 0.00
-66.9014 226.963 127.235 0.00 0.00 0.00
-53.8655 224.386 123.842 0.00 0.00 0.00
-42.0726 220.153 118.267 0.00 0.00 0.00
-107.073 208.822 131.428 0.00 0.00 0.00
-94.1616 210.373 135.782 0.00 0.00 0.00
-80.5525 210.942 137.378 0.00 0.00 0.00
-66.9014 210.501 136.14 0.00 0.00 0.00
-53.8655 209.071 132.127 0.00 0.00 0.00
-42.0726 206.721 125.533 0.00 0.00 0.00
-107.073 191.942 134.652 0.00 0.00 0.00
-94.1616 192.104 139.271 0.00 0.00 0.00
-80.5525 192.164 140.965 0.00 0.00 0.00
-66.9014 192.118 139.652 0.00 0.00 0.00
-53.8655 191.968 135.395 0.00 0.00 0.00
-42.0726 191.722 128.398 0.00 0.00 0.00
-58.0734 246.142 72.63 0.00 0.00 0.00
-45.1616 250.764 72.63 0.00 0.00 0.00
-31.5525 252.459 72.63 0.00 0.00 0.00
-17.9014 251.145 72.63 0.00 0.00 0.00
-4.86555 246.885 72.63 0.00 0.00 0.00
6.92736 239.884 72.63 0.00 0.00 0.00
-58.0734 243.513 89.6131 0.00 0.00 0.00
-45.1616 247.919 91.0105 0.00 0.00 0.00
-31.5525 249.535 91.5228 0.00 0.00 0.00
-17.9014 248.282 91.1255 0.00 0.00 0.00
-4.86555 244.221 89.8377 0.00 0.00 0.00
6.92736 237.548 87.7213 0.00 0.00 0.00
-58.0734 235.873 105.007 0.00 0.00 0.00
-45.1616 239.651 107.671 0.00 0.00 0.00
-31.5525 241.036 108.648 0.00 0.00 0.00
-17.9014 239.962 107.89 0.00 0.00 0.00
-4.86555 236.48 105.435 0.00 0.00 0.00
6.92736 230.76 101.4 0.00 0.00 0.00
-58.0734 223.937 117.371 0.00 0.00 0.00
-45.1616 226.732 121.052 0.00 0.00 0.00
-31.5525 227.757 122.402 0.00 0.00 0.00
-17.9014 226.963 121.355 0.00 0.00 0.00
-4.86555 224.386 117.962 0.00 0.00 0.00
6.92736 220.153 112.387 0.00 0.00 0.00
-58.0734 208.822 125.548 0.00 0.00 0.00
-45.1616 210.373 129.902 0.00 0.00 0.00
-31.5525 210.942 131.498 0.00 0.00 0.00
-17.9014 210.501 130.26 0.00 0.00 0.00
-4.86555 209.071 126.247 0.00 0.00 0.00
6.92736 206.721 119.653 0.00 0.00 0.00
-58.0734 191.942 128.772 0.00 0.00 0.00
-45.1616 192.104 133.391 0.00 0.00 0.00
-31.5525 192.164 135.085 0.00 0.00 0.00
-17.9014 192.118 133.772 0.00 0.00 0.00
-4.86555 191.968 129.515 0.00 0.00 0.00
6.92736 191.722 122.518 0.00 0.00 0.00
-67.8734 246.142 72.63 0.00 0.00 0.00
-54.9616 250.764 72.63 0.00 0.00 0.00
-41.3525 252.459 72.63 0.00 0.00 0.00
-27.7014 251.145 72.63 0.00 0.00 0.00
-14.6655 246.885 72.63 0.00 0.00 0.00
-2.87264 239.884 72.63 0.00 0.00 0.00
-67.8734 243.513 89.6131 0.00 0.00 0.00
-54.9616 247.919 91.0105 0.00 0.00 0.00
-41.3525 249.535 91.5228 0.00 0.00 0.00
-27.7014 248.282 91.1255 0.00 0.00 0.00
-14.6655 244.221 89.8377 0.00 0.00 0.00
-2.87264 237.548 87.7213 0.00 0.00 0.00
-67.8734 235.873 105.007 0.00 0.00 0.00
-54.9616 239.651 107.671 0.00 0.00 0.00
-41.3525 241.036 108.648 0.00 0.00 0.00
-27.7014 239.962 107.89 0.00 0.00 0.00
-14.6655 236.48 105.435 0.00 0.00 0.00
-2.87264 230.76 101.4 0.00 0.00 0.00
-67.8734 223.937 117.371 0.00 0.00 0.00
-54.9616 226.732 121.052 0.00 0.00 0.00
-41.3525 227.757 122.402 0.00 0.00 0.00
-27.7014 226.963 121.355 0.00 0.00 0.00
-14.6655 224.386 117.962 0.00 0.00 0.00
-2.87264 220.153 112.387 0.00 0.00 0.00
-67.8734 208.822 125.548 0.00 0.00 0.00
-54.9616 210.373 129.902 0.00 0.00 0.00
-41.3525 210.942 131.498 0.00 0.00 0.00
-27.7014 210.501 130.26 0.00 0.00 0.00
-14.6655 209.071 126.247 0.00 0.00 0.00
-2.87264 206.721 119.653 0.00 0.00 0.00
-67.8734 191.942 128.772 0.00 0.00 0.00
-54.9616 192.104 133.391 0.00 0.00 0.00
-41.3525 192.164 135.085 0.00 0.00 0.00
