-65.8791 182.993 108.316 0.00 0.00 0.00
-51.8004 182.831 103.719 0.00 0.00 0.00
-39.0641 182.565 96.1628 0.00 0.00 0.00
-60.2649 241.339 37.0344 0.00 0.00 0.00
-46.3201 246.331 37.0344 0.00 0.00 0.00
-31.6223 248.161 37.0344 0.00 0.00 0.00
-16.8791 246.742 37.0344 0.00 0.00 0.00
-2.80039 242.141 37.0344 0.00 0.00 0.00
9.93595 234.581 37.0344 0.00 0.00 0.00
-60.2649 238.5 55.3762 0.00 0.00 0.00
-46.3201 243.258 56.8853 0.00 0.00 0.00
-31.6223 245.003 57.4387 0.00 0.00 0.00
-16.8791 243.65 57.0096 0.00 0.00 0.00
-2.80039 239.265 55.6188 0.00 0.00 0.00
9.93595 232.058 53.3331 0.00 0.00 0.00
-60.2649 230.249 72.0015 0.00 0.00 0.00
-46.3201 234.329 74.8785 0.00 0.00 0.00
-31.6223 235.824 75.9334 0.00 0.00 0.00
-16.8791 234.664 75.1154 0.00 0.00 0.00
-2.80039 230.905 72.4639 0.00 0.00 0.00
9.93595 224.726 68.1064 0.00 0.00 0.00
-60.2649 217.358 85.3544 0.00 0.00 0.00
-46.3201 220.377 89.3301 0.00 0.00 0.00
-31.6223 221.484 90.7879 0.00 0.00 0.00
-16.8791 220.625 89.6575 0.00 0.00 0.00
-2.80039 217.843 85.9934 0.00 0.00 0.00
9.93595 213.271 79.972 0.00 0.00 0.00
-60.2649 201.033 94.1854 0.00 0.00 0.00
-46.3201 202.709 98.8877 0.00 0.00 0.00
-31.6223 203.323 100.612 0.00 0.00 0.00
-16.8791 202.847 99.2749 0.00 0.00 0.00
-2.80039 201.303 94.9411 0.00 0.00 0.00
9.93595 198.765 87.8193 0.00 0.00 0.00
-60.2649 182.803 97.668 0.00 0.00 0.00
-46.3201 182.979 102.657 0.00 0.00 0.00
-31.6223 183.043 104.486 0.00 0.00 0.00
-16.8791 182.993 103.068 0.00 0.00 0.00
-2.80039 182.831 98.4698 0.00 0.00 0.00
9.93595 182.565 90.9139 0.00 0.00 0.00
-70.0649 241.339 37.0344 0.00 0.00 0.00
-56.1201 246.331 37.0344 0.00 0.00 0.00
-41.4223 248.161 37.0344 0.00 0.00 0.00
-26.6791 246.742 37.0344 0.00 0.00 0.00
-12.6004 242.141 37.0344 0.00 0.00 0.00
0.135947 234.581 37.0344 0.00 0.00 0.00
-70.0649 238.5 55.3762 0.00 0.00 0.00
-56.1201 243.258 56.8853 0.00 0.00 0.00
-41.4223 245.003 57.4387 0.00 0.00 0.00
-26.6791 243.65 57.0096 0.00 0.00 0.00
-12.6004 239.265 55.6188 0.00 0.00 0.00
0.135947 232.058 53.3331 0.00 0.00 0.00
-70.0649 230.249 72.0015 0.00 0.00 0.00
-56.1201 234.329 74.8785 0.00 0.00 0.00
-41.4223 235.824 75.9334 0.00 0.00 0.00
-26.6791 234.664 75.1154 0.00 0.00 0.00
-12.6004 230.905 72.4639 0.00 0.00 0.00
0.135947 224.726 68.1064 0.00 0.00 0.00
-70.0649 217.358 85.3544 0.00 0.00 0.00
-56.1201 220.377 89.3301 0.00 0.00 0.00
-41.4223 221.484 90.7879 0.00 0.00 0.00
-26.6791 220.625 89.6575 0.00 0.00 0.00
-12.6004 217.843 85.9934 0.00 0.00 0.00
0.135947 213.271 79.972 0.00 0.00 0.00
-70.0649 201.033 94.1854 0.00 0.00 0.00
-56.1201 202.709 98.8877 0.00 0.00 0.00
-41.4223 203.323 100.612 0.00 0.00 0.00
-26.6791 202.847 99.2749 0.00 0.00 0.00
-12.6004 201.303 94.9411 0.00 0.00 0.00
0.135947 198.765 87.8193 0.00 0.00 0.00
-70.0649 182.803 97.668 0.00 0.00 0.00
-56.1201 182.979 102.657 0.00 0.00 0.00
-41.4223 183.043 104.486 0.00 0.00 0.00
-26.6791 182.993 103.068 0.00 0.00 0.00
-12.6004 182.831 98.4698 0.00 0.00 0.00
0.135947 182.565 90.9139 0.00 0.00 0.00
-79.8649 241.339 37.0344 0.00 0.00 0.00
-65.9201 246.331 37.0344 0.00 0.00 0.00
-51.2223 248.161 37.0344 0.00 0.00 0.00
-36.4791 246.742 37.0344 0.00 0.00 0.00
-22.4004 242.141 37.0344 0.00 0.00 0.00
-9.66405 234.581 37.0344 0.00 0.00 0.00
-79.8649 238.5 55.3762 0.00 0.00 0.00
-65.9201 243.258 56.8853 0.00 0.00 0.00
-51.2223 245.003 57.4387 0.00 0.00 0.00
-36.4791 243.65 57.0096 0.00 0.00 0.00
-22.4004 239.265 55.6188 0.00 0.00 0.00
-9.66405 232.058 53.3331 0.00 0.00 0.00
-79.8649 230.249 72.0015 0.00 0.00 0.00
-65.9201 234.329 74.8785 0.00 0.00 0.00
-51.2223 235.824 75.9334 0.00 0.00 0.00
-36.4791 234.664 75.1154 0.00 0.00 0.00
-22.4004 230.905 72.4639 0.00 0.00 0.00
-9.66405 224.726 68.1064 0.00 0.00 0.00
-79.8649 217.358 85.3544 0.00 0.00 0.00
-65.9201 220.377 89.3301 0.00 0.00 0.00
-51.2223 221.484 90.7879 0.00 0.00 0.00
-36.4791 220.625 89.6575 0.00 0.00 0.00
-22.4004 217.843 85.9934 0.00 0.00 0.00
-9.66405 213.271 79.972 0.00 0.00 0.00
-79.8649 201.033 94.1854 0.00 0.00 0.00
-65.9201 202.709 98.8877 0.00 0.00 0.00
-51.2223 203.323 100.612 0.00 0.00 0.00
-36.4791 202.847 99.2749 0.00 0.00 0.00
-22.4004 201.303 94.9411 0.00 0.00 0.00
-9.66405 198.765 87.8193 0.00 0.00 0.00
-79.8649 182.803 97.668 0.00 0.00 0.00
-65.9201 182.979 102.657 0.00 0.00 0.00
-51.2223 183.043 104.486 0.00 0.00 0.00
-36.4791 182.993 103.068 0.00 0.00 0.00
-22.4004 182.831 98.4698 0.00 0.00 0.00
-9.66405 182.565 90.9139 0.00 0.00 0.00
-89.6649 241.339 37.0344 0.00 0.00 0.00
-75.7201 246.331 37.0344 0.00 0.00 0.00
-61.0223 248.161 37.0344 0.00 0.00 0.00
-46.2791 246.742 37.0344 0.00 0.00 0.00
-32.2004 242.141 37.0344 0.00 0.00 0.00
-19.4641 234.581 37.0344 0.00 0.00 0.00
-89.6649 238.5 55.3762 0.00 0.00 0.00
-75.7201 243.258 56.8853 0.00 0.00 0.00
-61.0223 245.003 57.4387 0.00 0.00 0.00
-46.2791 243.65 57.0096 0.00 0.00 0.00
-32.2004 239.265 55.6188 0.00 0.00 0.00
-19.4641 232.058 53.3331 0.00 0.00 0.00
-89.6649 230.249 72.0015 0.00 0.00 0.00
-75.7201 234.329 74.8785 0.00 0.00 0.00
-61.0223 235.824 75.9334 0.00 0.00 0.00
-46.2791 234.664 75.1154 0.00 0.00 0.00
-32.2004 230.905 72.4639 0.00 0.00 0.00
-19.4641 224.726 68.1064 0.00 0.00 0.00
-89.6649 217.358 85.3544 0.00 0.00 0.00
-75.7201 220.377 89.3301 0.00 0.00 0.00
-61.0223 221.484 90.7879 0.00 0.00 0.00
-46.2791 220.625 89.6575 0.00 0.00 0.00
-32.2004 217.843 85.9934 0.00 0.00 0.00
-19.4641 213.271 79.972 0.00 0.00 0.00
-89.6649 201.033 94.1854 0.00 0.00 0.00
-75.7201 202.709 98.8877 0.00 0.00 0.00
-61.0223 203.323 100.612 0.00 0.00 0.00
-46.2791 202.847 99.2749 0.00 0.00 0.00
-32.2004 201.303 94.9411 0.00 0.00 0.00
-19.4641 198.765 87.8193 0.00 0.00 0.00
-89.6649 182.803 97.668 0.00 0.00 0.00
-75.7201 182.979 102.657 0.00 0.00 0.00
-61.0223 183.043 104.486 0.00 0.00 0.00
-46.2791 182.993 103.068 0.00 0.00 0.00
-32.2004 182.831 98.4698 0.00 0.00 0.00
-19.4641 182.565 90.9139 0.00 0.00 0.00
-99.4649 241.339 37.0344 0.00 0.00 0.00
-85.5201 246.331 37.0344 0.00 0.00 0.00
-70.8223 248.161 37.0344 0.00 0.00 0.00
-56.0791 246.742 37.0344 0.00 0.00 0.00
-42.0004 242.141 37.0344 0.00 0.00 0.00
-29.2641 234.581 37.0344 0.00 0.00 0.00
-99.4649 238.5 55.3762 0.00 0.00 0.00
-85.5201 243.258 56.8853 0.00 0.00 0.00
-70.8223 245.003 57.4387 0.00 0.00 0.00
-56.0791 243.65 57.0096 0.00 0.00 0.00
-42.0004 239.265 55.6188 0.00 0.00 0.00
-29.2641 232.058 53.3331 0.00 0.00 0.00
-99.4649 230.249 72.0015 0.00 0.00 0.00
-85.5201 234.329 74.8785 0.00 0.00 0.00
-70.8223 235.824 75.9334 0.00 0.00 0.00
-56.0791 234.664 75.1154 0.00 0.00 0.00
-42.0004 230.905 72.4639 0.00 0.00 0.00
-29.2641 224.726 68.1064 0.00 0.00 0.00
-99.4649 217.358 85.3544 0.00 0.00 0.00
-85.5201 220.377 89.3301 0.00 0.00 0.00
-70.8223 221.484 90.7879 0.00 0.00 0.00
-56.0791 220.625 89.6575 0.00 0.00 0.00
-42.0004 217.843 85.9934 0.00 0.00 0.00
-29.2641 213.271 79.972 0.00 0.00 0.00
-99.4649 201.033 94.1854 0.00 0.00 0.00
-85.5201 202.709 98.8877 0.00 0.00 0.00
-70.8223 203.323 100.612 0.00 0.00 0.00
-56.0791 202.847 99.2749 0.00 0.00 0.00
-42.0004 201.303 94.9411 0.00 0.00 0.00
-29.2641 198.765 87.8193 0.00 0.00 0.00
-99.4649 182.803 97.668 0.00 0.00 0.00
-85.5201 182.979 102.657 0.00 0.00 0.00
-70.8223 183.043 104.486 0.00 0.00 0.00
-56.0791 182.993 103.068 0.00 0.00 0.00
-42.0004 182.831 98.4698 0.00 0.00 0.00
-29.2641 182.565 90.9139 0.00 0.00 0.00
-109.265 241.339 37.0344 0.00 0.00 0.00
-95.3201 246.331 37.0344 0.00 0.00 0.00
-80.6223 248.161 37.0344 0.00 0.00 0.00
-65.8791 246.742 37.0344 0.00 0.00 0.00
-51.8004 242.141 37.0344 0.00 0.00 0.00
-39.0641 234.581 37.0344 0.00 0.00 0.00
-109.265 238.5 55.3762 0.00 0.00 0.00
-95.3201 243.258 56.8853 0.00 0.00 0.00
-80.6223 245.003 57.4387 0.00 0.00 0.00
-65.8791 243.65 57.0096 0.00 0.00 0.00
-51.8004 239.265 55.6188 0.00 0.00 0.00
-39.0641 232.058 53.3331 0.00 0.00 0.00
-109.265 230.249 72.0015 0.00 0.00 0.00
-95.3201 234.329 74.8785 0.00 0.00 0.00
-80.6223 235.824 75.9334 0.00 0.00 0.00
-65.8791 234.664 75.1154 0.00 0.00 0.00
-51.8004 230.905 72.4639 0.00 0.00 0.00
-39.0641 224.726 68.1064 0.00 0.00 0.00
-109.265 217.358 85.3544 0.00 0.00 0.00
-95.3201 220.377 89.3301 0.00 0.00 0.00
-80.6223 221.484 90.7879 0.00 0.00 0.00
-65.8791 220.625 89.6575 0.00 0.00 0.00
-51.8004 217.843 85.9934 0.00 0.00 0.00
-39.0641 213.271 79.972 0.00 0.00 0.00
-109.265 201.033 94.1854 0.00 0.00 0.00
-95.3201 202.709 98.8877 0.00 0.00 0.00
-80.6223 203.323 100.612 0.00 0.00 0.00
-65.8791 202.847 99.2749 0.00 0.00 0.00
-51.8004 201.303 94.9411 0.00 0.00 0.00
-39.0641 198.765 87.8193 0.00 0.00 0.00
-109.265 182.803 97.668 0.00 0.00 0.00
-95.3201 182.979 102.657 0.00 0.00 0.00
-80.6223 183.043 104.486 0.00 0.00 0.00
-65.8791 182.993 103.068 0.00 0.00 0.00
-51.8004 182.831 98.4698 0.00 0.00 0.00
-39.0641 182.565 90.9139 0.00 0.00 0.00
-60.2649 241.339 31.7856 0.00 0.00 0.00
-46.3201 246.331 31.7856 0.00 0.00 0.00
-31.6223 248.161 31.7856 0.00 0.00 0.00
-16.8791 246.742 31.7856 0.00 0.00 0.00
-2.80039 242.141 31.7856 0.00 0.00 0.00
9.93595 234.581 31.7856 0.00 0.00 0.00
-60.2649 238.5 50.1273 0.00 0.00 0.00
-46.3201 243.258 51.6365 0.00 0.00 0.00
-31.6223 245.003 52.1898 0.00 0.00 0.00
-16.8791 243.65 51.7607 0.00 0.00 0.00
-2.80039 239.265 50.3699 0.00 0.00 0.00
9.93595 232.058 48.0842 0.00 0.00 0.00
-60.2649 230.249 66.7526 0.00 0.00 0.00
-46.3201 234.329 69.6296 0.00 0.00 0.00
-31.6223 235.824 70.6846 0.00 0.00 0.00
-16.8791 234.664 69.8665 0.00 0.00 0.00
-2.80039 230.905 67.215 0.00 0.00 0.00
9.93595 224.726 62.8576 0.00 0.00 0.00
-60.2649 217.358 80.1056 0.00 0.00 0.00
-46.3201 220.377 84.0812 0.00 0.00 0.00
-31.6223 221.484 85.539 0.00 0.00 0.00
-16.8791 220.625 84.4086 0.00 0.00 0.00
-2.80039 217.843 80.7445 0.00 0.00 0.00
9.93595 213.271 74.7231 0.00 0.00 0.00
-60.2649 201.033 88.9365 0.00 0.00 0.00
-46.3201 202.709 93.6388 0.00 0.00 0.00
-31.6223 203.323 95.363 0.00 0.00 0.00
-16.8791 202.847 94.026 0.00 0.00 0.00
-2.80039 201.303 89.6922 0.00 0.00 0.00
9.93595 198.765 82.5704 0.00 0.00 0.00
-60.2649 182.803 92.4191 0.00 0.00 0.00
-46.3201 182.979 97.408 0.00 0.00 0.00
-31.6223 183.043 99.2372 0.00 0.00 0.00
-16.8791 182.993 97.8187 0.00 0.00 0.00
-2.80039 182.831 93.2209 0.00 0.00 0.00
9.93595 182.565 85.665 0.00 0.00 0.00
-70.0649 241.339 31.7856 0.00 0.00 0.00
-56.1201 246.331 31.7856 0.00 0.00 0.00
-41.4223 248.161 31.7856 0.00 0.00 0.00
-26.6791 246.742 31.7856 0.00 0.00 0.00
-12.6004 242.141 31.7856 0.00 0.00 0.00
0.135947 234.581 31.7856 0.00 0.00 0.00
-70.0649 238.5 50.1273 0.00 0.00 0.00
-56.1201 243.258 51.6365 0.00 0.00 0.00
-41.4223 245.003 52.1898 0.00 0.00 0.00
-26.6791 243.65 51.7607 0.00 0.00 0.00
-12.6004 239.265 50.3699 0.00 0.00 0.00
0.135947 232.058 48.0842 0.00 0.00 0.00
-70.0649 230.249 66.7526 0.00 0.00 0.00
-56.1201 234.329 69.6296 0.00 0.00 0.00
-41.4223 235.824 70.6846 0.00 0.00 0.00
-26.6791 234.664 69.8665 0.00 0.00 0.00
-12.6004 230.905 67.215 0.00 0.00 0.00
0.135947 224.726 62.8576 0.00 0.00 0.00
-70.0649 217.358 80.1056 0.00 0.00 0.00
-56.1201 220.377 84.0812 0.00 0.00 0.00
-41.4223 221.484 85.539 0.00 0.00 0.00
-26.6791 220.625 84.4086 0.00 0.00 0.00
-12.6004 217.843 80.7445 0.00 0.00 0.00
0.135947 213.271 74.7231 0.00 0.00 0.00
-70.0649 201.033 88.9365 0.00 0.00 0.00
-56.1201 202.709 93.6388 0.00 0.00 0.00
-41.4223 203.323 95.363 0.00 0.00 0.00
-26.6791 202.847 94.026 0.00 0.00 0.00
-12.6004 201.303 89.6922 0.00 0.00 0.00
0.135947 198.765 82.5704 0.00 0.00 0.00
-70.0649 182.803 92.4191 0.00 0.00 0.00
-56.1201 182.979 97.408 0.00 0.00 0.00
-41.4223 183.043 99.2372 0.00 0.00 0.00
-26.6791 182.993 97.8187 0.00 0.00 0.00
-12.6004 182.831 93.2209 0.00 0.00 0.00
0.135947 182.565 85.665 0.00 0.00 0.00
-79.8649 241.339 31.7856 0.00 0.00 0.00
-65.9201 246.331 31.7856 0.00 0.00 0.00
-51.2223 248.161 31.7856 0.00 0.00 0.00
-36.4791 246.742 31.7856 0.00 0.00 0.00
-22.4004 242.141 31.7856 0.00 0.00 0.00
-9.66405 234.581 31.7856 0.00 0.00 0.00
-79.8649 238.5 50.1273 0.00 0.00 0.00
-65.9201 243.258 51.6365 0.00 0.00 0.00
-51.2223 245.003 52.1898 0.00 0.00 0.00
-36.4791 243.65 51.7607 0.00 0.00 0.00
-22.4004 239.265 50.3699 0.00 0.00 0.00
-9.66405 232.058 48.0842 0.00 0.00 0.00
-79.8649 230.249 66.7526 0.00 0.00 0.00
-65.9201 234.329 69.6296 0.00 0.00 0.00
-51.2223 235.824 70.6846 0.00 0.00 0.00
-36.4791 234.664 69.8665 0.00 0.00 0.00
-22.4004 230.905 67.215 0.00 0.00 0.00
-9.66405 224.726 62.8576 0.00 0.00 0.00
-79.8649 217.358 80.1056 0.00 0.00 0.00
-65.9201 220.377 84.0812 0.00 0.00 0.00
-51.2223 221.484 85.539 0.00 0.00 0.00
-36.4791 220.625 84.4086 0.00 0.00 0.00
-22.4004 217.843 80.7445 0.00 0.00 0.00
-9.66405 213.271 74.7231 0.00 0.00 0.00
-79.8649 201.033 88.9365 0.00 0.00 0.00
-65.9201 202.709 93.6388 0.00 0.00 0.00
-51.2223 203.323 95.363 0.00 0.00 0.00
-36.4791 202.847 94.026 0.00 0.00 0.00
-22.4004 201.303 89.6922 0.00 0.00 0.00
-9.66405 198.765 82.5704 0.00 0.00 0.00
-79.8649 182.803 92.4191 0.00 0.00 0.00
-65.9201 182.979 97.408 0.00 0.00 0.00
-51.2223 183.043 99.2372 0.00 0.00 0.00
-36.4791 182.993 97.8187 0.00 0.00 0.00
-22.4004 182.831 93.2209 0.00 0.00 0.00
-9.66405 182.565 85.665 0.00 0.00 0.00
-89.6649 241.339 31.7856 0.00 0.00 0.00
-75.7201 246.331 31.7856 0.00 0.00 0.00
-61.0223 248.161 31.7856 0.00 0.00 0.00
-46.2791 246.742 31.7856 0.00 0.00 0.00
-32.2004 242.141 31.7856 0.00 0.00 0.00
-19.4641 234.581 31.7856 0.00 0.00 0.00
-89.6649 238.5 50.1273 0.00 0.00 0.00
-75.7201 243.258 51.6365 0.00 0.00 0.00
-61.0223 245.003 52.1898 0.00 0.00 0.00
-46.2791 243.65 51.7607 0.00 0.00 0.00
-32.2004 239.265 50.3699 0.00 0.00 0.00
-19.4641 232.058 48.0842 0.00 0.00 0.00
-89.6649 230.249 66.7526 0.00 0.00 0.00
-75.7201 234.329 69.6296 0.00 0.00 0.00
-61.0223 235.824 70.6846 0.00 0.00 0.00
-46.2791 234.664 69.8665 0.00 0.00 0.00
-32.2004 230.905 67.215 0.00 0.00 0.00
-19.4641 224.726 62.8576 0.00 0.00 0.00
-89.6649 217.358 80.1056 0.00 0.00 0.00
-75.7201 220.377 84.0812 0.00 0.00 0.00
-61.0223 221.484 85.539 0.00 0.00 0.00
-46.2791 220.625 84.4086 0.00 0.00 0.00
-32.2004 217.843 80.7445 0.00 0.00 0.00
-19.4641 213.271 74.7231 0.00 0.00 0.00
-89.6649 201.033 88.9365 0.00 0.00 0.00
-75.7201 202.709 93.6388 0.00 0.00 0.00
-61.0223 203.323 95.363 0.00 0.00 0.00
-46.2791 202.847 94.026 0.00 0.00 0.00
-32.2004 201.303 89.6922 0.00 0.00 0.00
-19.4641 198.765 82.5704 0.00 0.00 0.00
-89.6649 182.803 92.4191 0.00 0.00 0.00
-75.7201 182.979 97.408 0.00 0.00 0.00
-61.0223 183.043 99.2372 0.00 0.00 0.00
-46.2791 182.993 97.8187 0.00 0.00 0.00
-32.2004 182.831 93.2209 0.00 0.00 0.00
-19.4641 182.565 85.665 0.00 0.00 0.00
-99.4649 241.339 31.7856 0.00 0.00 0.00
-85.5201 246.331 31.7856 0.00 0.00 0.00
-70.8223 248.161 31.7856 0.00 0.00 0.00
-56.0791 246.742 31.7856 0.00 0.00 0.00
-42.0004 242.141 31.7856 0.00 0.00 0.00
-29.2641 234.581 31.7856 0.00 0.00 0.00
-99.4649 238.5 50.1273 0.00 0.00 0.00
-85.5201 243.258 51.6365 0.00 0.00 0.00
-70.8223 245.003 52.1898 0.00 0.00 0.00
-56.0791 243.65 51.7607 0.00 0.00 0.00
-42.0004 239.265 50.3699 0.00 0.00 0.00
-29.2641 232.058 48.0842 0.00 0.00 0.00
-99.4649 230.249 66.7526 0.00 0.00 0.00
-85.5201 234.329 69.6296 0.00 0.00 0.00
-70.8223 235.824 70.6846 0.00 0.00 0.00
-56.0791 234.664 69.8665 0.00 0.00 0.00
-42.0004 230.905 67.215 0.00 0.00 0.00
-29.2641 224.726 62.8576 0.00 0.00 0.00
-99.4649 217.358 80.1056 0.00 0.00 0.00
-85.5201 220.377 84.0812 0.00 0.00 0.00
-70.8223 221.484 85.539 0.00 0.00 0.00
-56.0791 220.625 84.4086 0.00 0.00 0.00
-42.0004 217.843 80.7445 0.00 0.00 0.00
-29.2641 213.271 74.7231 0.00 0.00 0.00
-99.4649 201.033 88.9365 0.00 0.00 0.00
-85.5201 202.709 93.6388 0.00 0.00 0.00
-70.8223 203.323 95.363 0.00 0.00 0.00
-56.0791 202.847 94.026 0.00 0.00 0.00
-42.0004 201.303 89.6922 0.00 0.00 0.00
-29.2641 198.765 82.5704 0.00 0.00 0.00
-99.4649 182.803 92.4191 0.00 0.00 0.00
-85.5201 182.979 97.408 0.00 0.00 0.00
-70.8223 183.043 99.2372 0.00 0.00 0.00
-56.0791 182.993 97.8187 0.00 0.00 0.00
-42.0004 182.831 93.2209 0.00 0.00 0.00
-29.2641 182.565 85.665 0.00 0.00 0.00
-109.265 241.339 31.7856 0.00 0.00 0.00
-95.3201 246.331 31.7856 0.00 0.00 0.00
-80.6223 248.161 31.7856 0.00 0.00 0.00
-65.8791 246.742 31.7856 0.00 0.00 0.00
-51.8004 242.141 31.7856 0.00 0.00 0.00
-39.0641 234.581 31.7856 0.00 0.00 0.00
-109.265 238.5 50.1273 0.00 0.00 0.00
-95.3201 243.258 51.6365 0.00 0.00 0.00
-80.6223 245.003 52.1898 0.00 0.00 0.00
-65.8791 243.65 51.7607 0.00 0.00 0.00
-51.8004 239.265 50.3699 0.00 0.00 0.00
-39.0641 232.058 48.0842 0.00 0.00 0.00
-109.265 230.249 66.7526 0.00 0.00 0.00
-95.3201 234.329 69.6296 0.00 0.00 0.00
-80.6223 235.824 70.6846 0.00 0.00 0.00
-65.8791 234.664 69.8665 0.00 0.00 0.00
-51.8004 230.905 67.215 0.00 0.00 0.00
-39.0641 224.726 62.8576 0.00 0.00 0.00
-109.265 217.358 80.1056 0.00 0.00 0.00
-95.3201 220.377 84.0812 0.00 0.00 0.00
-80.6223 221.484 85.539 0.00 0.00 0.00
-65.8791 220.625 84.4086 0.00 0.00 0.00
-51.8004 217.843 80.7445 0.00 0.00 0.00
-39.0641 213.271 74.7231 0.00 0.00 0.00
-109.265 201.033 88.9365 0.00 0.00 0.00
-95.3201 202.709 93.6388 0.00 0.00 0.00
-80.6223 203.323 95.363 0.00 0.00 0.00
-65.8791 202.847 94.026 0.00 0.00 0.00
-51.8004 201.303 89.6922 0.00 0.00 0.00
-39.0641 198.765 82.5704 0.00 0.00 0.00
-109.265 182.803 92.4191 0.00 0.00 0.00
-95.3201 182.979 97.408 0.00 0.00 0.00
-80.6223 183.043 99.2372 0.00 0.00 0.00
-65.8791 182.993 97.8187 0.00 0.00 0.00
-51.8004 182.831 93.2209 0.00 0.00 0.00
-39.0641 182.565 85.665 0.00 0.00 0.00
-60.2649 241.339 26.5367 0.00 0.00 0.00
-46.3201 246.331 26.5367 0.00 0.00 0.00
-31.6223 248.161 26.5367 0.00 0.00 0.00
-16.8791 246.742 26.5367 0.00 0.00 0.00
-2.80039 242.141 26.5367 0.00 0.00 0.00
9.93595 234.581 26.5367 0.00 0.00 0.00
-60.2649 238.5 44.8784 0.00 0.00 0.00
-46.3201 243.258 46.3876 0.00 0.00 0.00
-31.6223 245.003 46.9409 0.00 0.00 0.00
-16.8791 243.65 46.5118 0.00 0.00 0.00
-2.80039 239.265 45.121 0.00 0.00 0.00
9.93595 232.058 42.8353 0.00 0.00 0.00
-60.2649 230.249 61.5037 0.00 0.00 0.00
-46.3201 234.329 64.3808 0.00 0.00 0.00
-31.6223 235.824 65.4357 0.00 0.00 0.00
-16.8791 234.664 64.6176 0.00 0.00 0.00
-2.80039 230.905 61.9661 0.00 0.00 0.00
9.93595 224.726 57.6087 0.00 0.00 0.00
-60.2649 217.358 74.8567 0.00 0.00 0.00
-46.3201 220.377 78.8324 0.00 0.00 0.00
-31.6223 221.484 80.2901 0.00 0.00 0.00
-16.8791 220.625 79.1597 0.00 0.00 0.00
-2.80039 217.843 75.4956 0.00 0.00 0.00
9.93595 213.271 69.4742 0.00 0.00 0.00
-60.2649 201.033 83.6876 0.00 0.00 0.00
-46.3201 202.709 88.3899 0.00 0.00 0.00
-31.6223 203.323 90.1141 0.00 0.00 0.00
-16.8791 202.847 88.7771 0.00 0.00 0.00
-2.80039 201.303 84.4433 0.00 0.00 0.00
9.93595 198.765 77.3215 0.00 0.00 0.00
-60.2649 182.803 87.1702 0.00 0.00 0.00
-46.3201 182.979 92.1591 0.00 0.00 0.00
-31.6223 183.043 93.9883 0.00 0.00 0.00
-16.8791 182.993 92.5698 0.00 0.00 0.00
-2.80039 182.831 87.972 0.00 0.00 0.00
9.93595 182.565 80.4161 0.00 0.00 0.00
-70.0649 241.339 26.5367 0.00 0.00 0.00
-56.1201 246.331 26.5367 0.00 0.00 0.00
-41.4223 248.161 26.5367 0.00 0.00 0.00
-26.6791 246.742 26.5367 0.00 0.00 0.00
-12.6004 242.141 26.5367 0.00 0.00 0.00
0.135947 234.581 26.5367 0.00 0.00 0.00
-70.0649 238.5 44.8784 0.00 0.00 0.00
-56.1201 243.258 46.3876 0.00 0.00 0.00
-41.4223 245.003 46.9409 0.00 0.00 0.00
-26.6791 243.65 46.5118 0.00 0.00 0.00
-12.6004 239.265 45.121 0.00 0.00 0.00
0.135947 232.058 42.8353 0.00 0.00 0.00
-70.0649 230.249 61.5037 0.00 0.00 0.00
-56.1201 234.329 64.3808 0.00 0.00 0.00
-41.4223 235.824 65.4357 0.00 0.00 0.00
-26.6791 234.664 64.6176 0.00 0.00 0.00
-12.6004 230.905 61.9661 0.00 0.00 0.00
0.135947 224.726 57.6087 0.00 0.00 0.00
-70.0649 217.358 74.8567 0.00 0.00 0.00
-56.1201 220.377 78.8324 0.00 0.00 0.00
-41.4223 221.484 80.2901 0.00 0.00 0.00
-26.6791 220.625 79.1597 0.00 0.00 0.00
-12.6004 217.843 75.4956 0.00 0.00 0.00
0.135947 213.271 69.4742 0.00 0.00 0.00
-70.0649 201.033 83.6876 0.00 0.00 0.00
-56.1201 202.709 88.3899 0.00 0.00 0.00
-41.4223 203.323 90.1141 0.00 0.00 0.00
-26.6791 202.847 88.7771 0.00 0.00 0.00
-12.6004 201.303 84.4433 0.00 0.00 0.00
0.135947 198.765 77.3215 0.00 0.00 0.00
-70.0649 182.803 87.1702 0.00 0.00 0.00
-56.1201 182.979 92.1591 0.00 0.00 0.00
-41.4223 183.043 93.9883 0.00 0.00 0.00
-26.6791 182.993 92.5698 0.00 0.00 0.00
-12.6004 182.831 87.972 0.00 0.00 0.00
0.135947 182.565 80.4161 0.00 0.00 0.00
-79.8649 241.339 26.5367 0.00 0.00 0.00
-65.9201 246.331 26.5367 0.00 0.00 0.00
-51.2223 248.161 26.5367 0.00 0.00 0.00
-36.4791 246.742 26.5367 0.00 0.00 0.00
-22.4004 242.141 26.5367 0.00 0.00 0.00
-9.66405 234.581 26.5367 0.00 0.00 0.00
-79.8649 238.5 44.8784 0.00 0.00 0.00
-65.9201 243.258 46.3876 0.00 0.00 0.00
-51.2223 245.003 46.9409 0.00 0.00 0.00
-36.4791 243.65 46.5118 0.00 0.00 0.00
-22.4004 239.265 45.121 0.00 0.00 0.00
-9.66405 232.058 42.8353 0.00 0.00 0.00
-79.8649 230.249 61.5037 0.00 0.00 0.00
-65.9201 234.329 64.3808 0.00 0.00 0.00
-51.2223 235.824 65.4357 0.00 0.00 0.00
-36.4791 234.664 64.6176 0.00 0.00 0.00
-22.4004 230.905 61.9661 0.00 0.00 0.00
-9.66405 224.726 57.6087 0.00 0.00 0.00
-79.8649 217.358 74.8567 0.00 0.00 0.00
-65.9201 220.377 78.8324 0.00 0.00 0.00
-51.2223 221.484 80.2901 0.00 0.00 0.00
-36.4791 220.625 79.1597 0.00 0.00 0.00
-22.4004 217.843 75.4956 0.00 0.00 0.00
-9.66405 213.271 69.4742 0.00 0.00 0.00
-79.8649 201.033 83.6876 0.00 0.00 0.00
-65.9201 202.709 88.3899 0.00 0.00 0.00
-51.2223 203.323 90.1141 0.00 0.00 0.00
-36.4791 202.847 88.7771 0.00 0.00 0.00
-22.4004 201.303 84.4433 0.00 0.00 0.00
-9.66405 198.765 77.3215 0.00 0.00 0.00
-79.8649 182.803 87.1702 0.00 0.00 0.00
-65.9201 182.979 92.1591 0.00 0.00 0.00
-51.2223 183.043 93.9883 0.00 0.00 0.00
-36.4791 182.993 92.5698 0.00 0.00 0.00
-22.4004 182.831 87.972 0.00 0.00 0.00
-9.66405 182.565 80.4161 0.00 0.00 0.00
-89.6649 241.339 26.5367 0.00 0.00 0.00
-75.7201 246.331 26.5367 0.00 0.00 0.00
-61.0223 248.161 26.5367 0.00 0.00 0.00
-46.2791 246.742 26.5367 0.00 0.00 0.00
-32.2004 242.141 26.5367 0.00 0.00 0.00
-19.4641 234.581 26.5367 0.00 0.00 0.00
-89.6649 238.5 44.8784 0.00 0.00 0.00
-75.7201 243.258 46.3876 0.00 0.00 0.00
-61.0223 245.003 46.9409 0.00 0.00 0.00
-46.2791 243.65 46.5118 0.00 0.00 0.00
-32.2004 239.265 45.121 0.00 0.00 0.00
-19.4641 232.058 42.8353 0.00 0.00 0.00
-89.6649 230.249 61.5037 0.00 0.00 0.00
-75.7201 234.329 64.3808 0.00 0.00 0.00
-61.0223 235.824 65.4357 0.00 0.00 0.00
-46.2791 234.664 64.6176 0.00 0.00 0.00
-32.2004 230.905 61.9661 0.00 0.00 0.00
-19.4641 224.726 57.6087 0.00 0.00 0.00
-89.6649 217.358 74.8567 0.00 0.00 0.00
-75.7201 220.377 78.8324 0.00 0.00 0.00
-61.0223 221.484 80.2901 0.00 0.00 0.00
-46.2791 220.625 79.1597 0.00 0.00 0.00
-32.2004 217.843 75.4956 0.00 0.00 0.00
-19.4641 213.271 69.4742 0.00 0.00 0.00
-89.6649 201.033 83.6876 0.00 0.00 0.00
-75.7201 202.709 88.3899 0.00 0.00 0.00
-61.0223 203.323 90.1141 0.00 0.00 0.00
-46.2791 202.847 88.7771 0.00 0.00 0.00
-32.2004 201.303 84.4433 0.00 0.00 0.00
-19.4641 198.765 77.3215 0.00 0.00 0.00
-89.6649 182.803 87.1702 0.00 0.00 0.00
-75.7201 182.979 92.1591 0.00 0.00 0.00
-61.0223 183.043 93.9883 0.00 0.00 0.00
-46.2791 182.993 92.5698 0.00 0.00 0.00
-32.2004 182.831 87.972 0.00 0.00 0.00
-19.4641 182.565 80.4161 0.00 0.00 0.00
-99.4649 241.339 26.5367 0.00 0.00 0.00
-85.5201 246.331 26.5367 0.00 0.00 0.00
-70.8223 248.161 26.5367 0.00 0.00 0.00
-56.0791 246.742 26.5367 0.00 0.00 0.00
-42.0004 242.141 26.5367 0.00 0.00 0.00
-29.2641 234.581 26.5367 0.00 0.00 0.00
-99.4649 238.5 44.8784 0.00 0.00 0.00
-85.5201 243.258 46.3876 0.00 0.00 0.00
-70.8223 245.003 46.9409 0.00 0.00 0.00
-56.0791 243.65 46.5118 0.00 0.00 0.00
-42.0004 239.265 45.121 0.00 0.00 0.00
-29.2641 232.058 42.8353 0.00 0.00 0.00
-99.4649 230.249 61.5037 0.00 0.00 0.00
-85.5201 234.329 64.3808 0.00 0.00 0.00
-70.8223 235.824 65.4357 0.00 0.00 0.00
-56.0791 234.664 64.6176 0.00 0.00 0.00
-42.0004 230.905 61.9661 0.00 0.00 0.00
-29.2641 224.726 57.6087 0.00 0.00 0.00
-99.4649 217.358 74.8567 0.00 0.00 0.00
-85.5201 220.377 78.8324 0.00 0.00 0.00
-70.8223 221.484 80.2901 0.00 0.00 0.00
-56.0791 220.625 79.1597 0.00 0.00 0.00
-42.0004 217.843 75.4956 0.00 0.00 0.00
-29.2641 213.271 69.4742 0.00 0.00 0.00
-99.4649 201.033 83.6876 0.00 0.00 0.00
-85.5201 202.709 88.3899 0.00 0.00 0.00
-70.8223 203.323 90.1141 0.00 0.00 0.00
-56.0791 202.847 88.7771 0.00 0.00 0.00
-42.0004 201.303 84.4433 0.00 0.00 0.00
-29.2641 198.765 77.3215 0.00 0.00 0.00
-99.4649 182.803 87.1702 0.00 0.00 0.00
-85.5201 182.979 92.1591 0.00 0.00 0.00
-70.8223 183.043 93.9883 0.00 0.00 0.00
-56.0791 182.993 92.5698 0.00 0.00 0.00
-42.0004 182.831 87.972 0.00 0.00 0.00
-29.2641 182.565 80.4161 0.00 0.00 0.00
-109.265 241.339 26.5367 0.00 0.00 0.00
-95.3201 246.331 26.5367 0.00 0.00 0.00
-80.6223 248.161 26.5367 0.00 0.00 0.00
-65.8791 246.742 26.5367 0.00 0.00 0.00
-51.8004 242.141 26.5367 0.00 0.00 0.00
-39.0641 234.581 26.5367 0.00 0.00 0.00
-109.265 238.5 44.8784 0.00 0.00 0.00
-95.3201 243.258 46.3876 0.00 0.00 0.00
-80.6223 245.003 46.9409 0.00 0.00 0.00
-65.8791 243.65 46.5118 0.00 0.00 0.00
-51.8004 239.265 45.121 0.00 0.00 0.00
-39.0641 232.058 42.8353 0.00 0.00 0.00
-109.265 230.249 61.5037 0.00 0.00 0.00
-95.3201 234.329 64.3808 0.00 0.00 0.00
-80.6223 235.824 65.4357 0.00 0.00 0.00
-65.8791 234.664 64.6176 0.00 0.00 0.00
-51.8004 230.905 61.9661 0.00 0.00 0.00
-39.0641 224.726 57.6087 0.00 0.00 0.00
-109.265 217.358 74.8567 0.00 0.00 0.00
-95.3201 220.377 78.8324 0.00 0.00 0.00
-80.6223 221.484 80.2901 0.00 0.00 0.00
-65.8791 220.625 79.1597 0.00 0.00 0.00
-51.8004 217.843 75.4956 0.00 0.00 0.00
-39.0641 213.271 69.4742 0.00 0.00 0.00
-109.265 201.033 83.6876 0.00 0.00 0.00
-95.3201 202.709 88.3899 0.00 0.00 0.00
-80.6223 203.323 90.1141 0.00 0.00 0.00
-65.8791 202.847 88.7771 0.00 0.00 0.00
-51.8004 201.303 84.4433 0.00 0.00 0.00
-39.0641 198.765 77.3215 0.00 0.00 0.00
-109.265 182.803 87.1702 0.00 0.00 0.00
-95.3201 182.979 92.1591 0.00 0.00 0.00
-80.6223 183.043 93.9883 0.00 0.00 0.00
-65.8791 182.993 92.5698 0.00 0.00 0.00
-51.8004 182.831 87.972 0.00 0.00 0.00
-39.0641 182.565 80.4161 0.00 0.00 0.00
-60.2649 241.339 21.2878 0.00 0.00 0.00
-46.3201 246.331 21.2878 0.00 0.00 0.00
-31.6223 248.161 21.2878 0.00 0.00 0.00
-16.8791 246.742 21.2878 0.00 0.00 0.00
-2.80039 242.141 21.2878 0.00 0.00 0.00
9.93595 234.581 21.2878 0.00 0.00 0.00
-60.2649 238.5 39.6296 0.00 0.00 0.00
-46.3201 243.258 41.1387 0.00 0.00 0.00
-31.6223 245.003 41.692 0.00 0.00 0.00
-16.8791 243.65 41.2629 0.00 0.00 0.00
-2.80039 239.265 39.8721 0.00 0.00 0.00
9.93595 232.058 37.5864 0.00 0.00 0.00
-60.2649 230.249 56.2548 0.00 0.00 0.00
-46.3201 234.329 59.1319 0.00 0.00 0.00
-31.6223 235.824 60.1868 0.00 0.00 0.00
-16.8791 234.664 59.3688 0.00 0.00 0.00
-2.80039 230.905 56.7172 0.00 0.00 0.00
9.93595 224.726 52.3598 0.00 0.00 0.00
-60.2649 217.358 69.6078 0.00 0.00 0.00
-46.3201 220.377 73.5835 0.00 0.00 0.00
-31.6223 221.484 75.0412 0.00 0.00 0.00
-16.8791 220.625 73.9108 0.00 0.00 0.00
-2.80039 217.843 70.2467 0.00 0.00 0.00
9.93595 213.271 64.2253 0.00 0.00 0.00
-60.2649 201.033 78.4388 0.00 0.00 0.00
-46.3201 202.709 83.141 0.00 0.00 0.00
-31.6223 203.323 84.8652 0.00 0.00 0.00
-16.8791 202.847 83.5282 0.00 0.00 0.00
-2.80039 201.303 79.1945 0.00 0.00 0.00
9.93595 198.765 72.0726 0.00 0.00 0.00
-60.2649 182.803 81.9213 0.00 0.00 0.00
-46.3201 182.979 86.9102 0.00 0.00 0.00
-31.6223 183.043 88.7394 0.00 0.00 0.00
-16.8791 182.993 87.3209 0.00 0.00 0.00
-2.80039 182.831 82.7231 0.00 0.00 0.00
9.93595 182.565 75.1672 0.00 0.00 0.00
-70.0649 241.339 21.2878 0.00 0.00 0.00
-56.1201 246.331 21.2878 0.00 0.00 0.00
-41.4223 248.161 21.2878 0.00 0.00 0.00
-26.6791 246.742 21.2878 0.00 0.00 0.00
-12.6004 242.141 21.2878 0.00 0.00 0.00
0.135947 234.581 21.2878 0.00 0.00 0.00
-70.0649 238.5 39.6296 0.00 0.00 0.00
-56.1201 243.258 41.1387 0.00 0.00 0.00
-41.4223 245.003 41.692 0.00 0.00 0.00
-26.6791 243.65 41.2629 0.00 0.00 0.00
-12.6004 239.265 39.8721 0.00 0.00 0.00
0.135947 232.058 37.5864 0.00 0.00 0.00
-70.0649 230.249 56.2548 0.00 0.00 0.00
-56.1201 234.329 59.1319 0.00 0.00 0.00
-41.4223 235.824 60.1868 0.00 0.00 0.00
-26.6791 234.664 59.3688 0.00 0.00 0.00
-12.6004 230.905 56.7172 0.00 0.00 0.00
0.135947 224.726 52.3598 0.00 0.00 0.00
-70.0649 217.358 69.6078 0.00 0.00 0.00
-56.1201 220.377 73.5835 0.00 0.00 0.00
-41.4223 221.484 75.0412 0.00 0.00 0.00
-26.6791 220.625 73.9108 0.00 0.00 0.00
-12.6004 217.843 70.2467 0.00 0.00 0.00
0.135947 213.271 64.2253 0.00 0.00 0.00
-70.0649 201.033 78.4388 0.00 0.00 0.00
-56.1201 202.709 83.141 0.00 0.00 0.00
-41.4223 203.323 84.8652 0.00 0.00 0.00
-26.6791 202.847 83.5282 0.00 0.00 0.00
-12.6004 201.303 79.1945 0.00 0.00 0.00
0.135947 198.765 72.0726 0.00 0.00 0.00
-70.0649 182.803 81.9213 0.00 0.00 0.00
-56.1201 182.979 86.9102 0.00 0.00 0.00
-41.4223 183.043 88.7394 0.00 0.00 0.00
-26.6791 182.993 87.3209 0.00 0.00 0.00
-12.6004 182.831 82.7231 0.00 0.00 0.00
0.135947 182.565 75.1672 0.00 0.00 0.00
-79.8649 241.339 21.2878 0.00 0.00 0.00
-65.9201 246.331 21.2878 0.00 0.00 0.00
-51.2223 248.161 21.2878 0.00 0.00 0.00
-36.4791 246.742 21.2878 0.00 0.00 0.00
-22.4004 242.141 21.2878 0.00 0.00 0.00
-9.66405 234.581 21.2878 0.00 0.00 0.00
-79.8649 238.5 39.6296 0.00 0.00 0.00
-65.9201 243.258 41.1387 0.00 0.00 0.00
-51.2223 245.003 41.692 0.00 0.00 0.00
-36.4791 243.65 41.2629 0.00 0.00 0.00
-22.4004 239.265 39.8721 0.00 0.00 0.00
-9.66405 232.058 37.5864 0.00 0.00 0.00
-79.8649 230.249 56.2548 0.00 0.00 0.00
-65.9201 234.329 59.1319 0.00 0.00 0.00
-51.2223 235.824 60.1868 0.00 0.00 0.00
-36.4791 234.664 59.3688 0.00 0.00 0.00
-22.4004 230.905 56.7172 0.00 0.00 0.00
-9.66405 224.726 52.3598 0.00 0.00 0.00
-79.8649 217.358 69.6078 0.00 0.00 0.00
-65.9201 220.377 73.5835 0.00 0.00 0.00
-51.2223 221.484 75.0412 0.00 0.00 0.00
-36.4791 220.625 73.9108 0.00 0.00 0.00
-22.4004 217.843 70.2467 0.00 0.00 0.00
-9.66405 213.271 64.2253 0.00 0.00 0.00
-79.8649 201.033 78.4388 0.00 0.00 0.00
-65.9201 202.709 83.141 0.00 0.00 0.00
-51.2223 203.323 84.8652 0.00 0.00 0.00
-36.4791 202.847 83.5282 0.00 0.00 0.00
-22.4004 201.303 79.1945 0.00 0.00 0.00
-9.66405 198.765 72.0726 0.00 0.00 0.00
-79.8649 182.803 81.9213 0.00 0.00 0.00
-65.9201 182.979 86.9102 0.00 0.00 0.00
-51.2223 183.043 88.7394 0.00 0.00 0.00
-36.4791 182.993 87.3209 0.00 0.00 0.00
-22.4004 182.831 82.7231 0.00 0.00 0.00
-9.66405 182.565 75.1672 0.00 0.00 0.00
-89.6649 241.339 21.2878 0.00 0.00 0.00
-75.7201 246.331 21.2878 0.00 0.00 0.00
-61.0223 248.161 21.2878 0.00 0.00 0.00
-46.2791 246.742 21.2878 0.00 0.00 0.00
-32.2004 242.141 21.2878 0.00 0.00 0.00
-19.4641 234.581 21.2878 0.00 0.00 0.00
-89.6649 238.5 39.6296 0.00 0.00 0.00
-75.7201 243.258 41.1387 0.00 0.00 0.00
-61.0223 245.003 41.692 0.00 0.00 0.00
-46.2791 243.65 41.2629 0.00 0.00 0.00
-32.2004 239.265 39.8721 0.00 0.00 0.00
-19.4641 232.058 37.5864 0.00 0.00 0.00
-89.6649 230.249 56.2548 0.00 0.00 0.00
-75.7201 234.329 59.1319 0.00 0.00 0.00
-61.0223 235.824 60.1868 0.00 0.00 0.00
-46.2791 234.664 59.3688 0.00 0.00 0.00
-32.2004 230.905 56.7172 0.00 0.00 0.00
-19.4641 224.726 52.3598 0.00 0.00 0.00
-89.6649 217.358 69.6078 0.00 0.00 0.00
-75.7201 220.377 73.5835 0.00 0.00 0.00
-61.0223 221.484 75.0412 0.00 0.00 0.00
-46.2791 220.625 73.9108 0.00 0.00 0.00
-32.2004 217.843 70.2467 0.00 0.00 0.00
-19.4641 213.271 64.2253 0.00 0.00 0.00
-89.6649 201.033 78.4388 0.00 0.00 0.00
-75.7201 202.709 83.141 0.00 0.00 0.00
-61.0223 203.323 84.8652 0.00 0.00 0.00
-46.2791 202.847 83.5282 0.00 0.00 0.00
-32.2004 201.303 79.1945 0.00 0.00 0.00
-19.4641 198.765 72.0726 0.00 0.00 0.00
-89.6649 182.803 81.9213 0.00 0.00 0.00
-75.7201 182.979 86.9102 0.00 0.00 0.00
-61.0223 183.043 88.7394 0.00 0.00 0.00
-46.2791 182.993 87.3209 0.00 0.00 0.00
-32.2004 182.831 82.7231 0.00 0.00 0.00
-19.4641 182.565 75.1672 0.00 0.00 0.00
-99.4649 241.339 21.2878 0.00 0.00 0.00
-85.5201 246.331 21.2878 0.00 0.00 0.00
-70.8223 248.161 21.2878 0.00 0.00 0.00
-56.0791 246.742 21.2878 0.00 0.00 0.00
-42.0004 242.141 21.2878 0.00 0.00 0.00
-29.2641 234.581 21.2878 0.00 0.00 0.00
-99.4649 238.5 39.6296 0.00 0.00 0.00
-85.5201 243.258 41.1387 0.00 0.00 0.00
-70.8223 245.003 41.692 0.00 0.00 0.00
-56.0791 243.65 41.2629 0.00 0.00 0.00
-42.0004 239.265 39.8721 0.00 0.00 0.00
-29.2641 232.058 37.5864 0.00 0.00 0.00
-99.4649 230.249 56.2548 0.00 0.00 0.00
-85.5201 234.329 59.1319 0.00 0.00 0.00
-70.8223 235.824 60.1868 0.00 0.00 0.00
-56.0791 234.664 59.3688 0.00 0.00 0.00
-42.0004 230.905 56.7172 0.00 0.00 0.00
-29.2641 224.726 52.3598 0.00 0.00 0.00
-99.4649 217.358 69.6078 0.00 0.00 0.00
-85.5201 220.377 73.5835 0.00 0.00 0.00
-70.8223 221.484 75.0412 0.00 0.00 0.00
-56.0791 220.625 73.9108 0.00 0.00 0.00
-42.0004 217.843 70.2467 0.00 0.00 0.00
-29.2641 213.271 64.2253 0.00 0.00 0.00
-99.4649 201.033 78.4388 0.00 0.00 0.00
-85.5201 202.709 83.141 0.00 0.00 0.00
-70.8223 203.323 84.8652 0.00 0.00 0.00
-56.0791 202.847 83.5282 0.00 0.00 0.00
-42.0004 201.303 79.1945 0.00 0.00 0.00
-29.2641 198.765 72.0726 0.00 0.00 0.00
-99.4649 182.803 81.9213 0.00 0.00 0.00
-85.5201 182.979 86.9102 0.00 0.00 0.00
-70.8223 183.043 88.7394 0.00 0.00 0.00
-56.0791 182.993 87.3209 0.00 0.00 0.00
-42.0004 182.831 82.7231 0.00 0.00 0.00
-29.2641 182.565 75.1672 0.00 0.00 0.00
-109.265 241.339 21.2878 0.00 0.00 0.00
-95.3201 246.331 21.2878 0.00 0.00 0.00
-80.6223 248.161 21.2878 0.00 0.00 0.00
-65.8791 246.742 21.2878 0.00 0.00 0.00
-51.8004 242.141 21.2878 0.00 0.00 0.00
-39.0641 234.581 21.2878 0.00 0.00 0.00
-109.265 238.5 39.6296 0.00 0.00 0.00
-95.3201 243.258 41.1387 0.00 0.00 0.00
-80.6223 245.003 41.692 0.00 0.00 0.00
-65.8791 243.65 41.2629 0.00 0.00 0.00
-51.8004 239.265 39.8721 0.00 0.00 0.00
-39.0641 232.058 37.5864 0.00 0.00 0.00
-109.265 230.249 56.2548 0.00 0.00 0.00
-95.3201 234.329 59.1319 0.00 0.00 0.00
-80.6223 235.824 60.1868 0.00 0.00 0.00
-65.8791 234.664 59.3688 0.00 0.00 0.00
-51.8004 230.905 56.7172 0.00 0.00 0.00
-39.0641 224.726 52.3598 0.00 0.00 0.00
-109.265 217.358 69.6078 0.00 0.00 0.00
-95.3201 220.377 73.5835 0.00 0.00 0.00
-80.6223 221.484 75.0412 0.00 0.00 0.00
-65.8791 220.625 73.9108 0.00 0.00 0.00
-51.8004 217.843 70.2467 0.00 0.00 0.00
-39.0641 213.271 64.2253 0.00 0.00 0.00
-109.265 201.033 78.4388 0.00 0.00 0.00
-95.3201 202.709 83.141 0.00 0.00 0.00
-80.6223 203.323 84.8652 0.00 0.00 0.00
-65.8791 202.847 83.5282 0.00 0.00 0.00
-51.8004 201.303 79.1945 0.00 0.00 0.00
-39.0641 198.765 72.0726 0.00 0.00 0.00
-109.265 182.803 81.9213 0.00 0.00 0.00
-95.3201 182.979 86.9102 0.00 0.00 0.00
-80.6223 183.043 88.7394 0.00 0.00 0.00
-65.8791 182.993 87.3209 0.00 0.00 0.00
-51.8004 182.831 82.7231 0.00 0.00 0.00
-39.0641 182.565 75.1672 0.00 0.00 0.00
-60.2649 241.339 16.0389 0.00 0.00 0.00
-46.3201 246.331 16.0389 0.00 0.00 0.00
-31.6223 248.161 16.0389 0.00 0.00 0.00
-16.8791 246.742 16.0389 0.00 0.00 0.00
-2.80039 242.141 16.0389 0.00 0.00 0.00
9.93595 234.581 16.0389 0.00 0.00 0.00
-60.2649 238.5 34.3807 0.00 0.00 0.00
-46.3201 243.258 35.8898 0.00 0.00 0.00
-31.6223 245.003 36.4431 0.00 0.00 0.00
-16.8791 243.65 36.0141 0.00 0.00 0.00
-2.80039 239.265 34.6232 0.00 0.00 0.00
9.93595 232.058 32.3375 0.00 0.00 0.00
-60.2649 230.249 51.0059 0.00 0.00 0.00
-46.3201 234.329 53.883 0.00 0.00 0.00
-31.6223 235.824 54.9379 0.00 0.00 0.00
-16.8791 234.664 54.1199 0.00 0.00 0.00
-2.80039 230.905 51.4683 0.00 0.00 0.00
9.93595 224.726 47.1109 0.00 0.00 0.00
-60.2649 217.358 64.3589 0.00 0.00 0.00
-46.3201 220.377 68.3346 0.00 0.00 0.00
-31.6223 221.484 69.7923 0.00 0.00 0.00
-16.8791 220.625 68.6619 0.00 0.00 0.00
-2.80039 217.843 64.9978 0.00 0.00 0.00
9.93595 213.271 58.9764 0.00 0.00 0.00
-60.2649 201.033 73.1899 0.00 0.00 0.00
-46.3201 202.709 77.8922 0.00 0.00 0.00
-31.6223 203.323 79.6163 0.00 0.00 0.00
-16.8791 202.847 78.2793 0.00 0.00 0.00
-2.80039 201.303 73.9456 0.00 0.00 0.00
9.93595 198.765 66.8237 0.00 0.00 0.00
-60.2649 182.803 76.6724 0.00 0.00 0.00
-46.3201 182.979 81.6613 0.00 0.00 0.00
-31.6223 183.043 83.4905 0.00 0.00 0.00
-16.8791 182.993 82.0721 0.00 0.00 0.00
-2.80039 182.831 77.4742 0.00 0.00 0.00
9.93595 182.565 69.9183 0.00 0.00 0.00
-70.0649 241.339 16.0389 0.00 0.00 0.00
-56.1201 246.331 16.0389 0.00 0.00 0.00
-41.4223 248.161 16.0389 0.00 0.00 0.00
-26.6791 246.742 16.0389 0.00 0.00 0.00
-12.6004 242.141 16.0389 0.00 0.00 0.00
0.135947 234.581 16.0389 0.00 0.00 0.00
-70.0649 238.5 34.3807 0.00 0.00 0.00
-56.1201 243.258 35.8898 0.00 0.00 0.00
-41.4223 245.003 36.4431 0.00 0.00 0.00
-26.6791 243.65 36.0141 0.00 0.00 0.00
-12.6004 239.265 34.6232 0.00 0.00 0.00
0.135947 232.058 32.3375 0.00 0.00 0.00
-70.0649 230.249 51.0059 0.00 0.00 0.00
-56.1201 234.329 53.883 0.00 0.00 0.00
-41.4223 235.824 54.9379 0.00 0.00 0.00
-26.6791 234.664 54.1199 0.00 0.00 0.00
-12.6004 230.905 51.4683 0.00 0.00 0.00
0.135947 224.726 47.1109 0.00 0.00 0.00
-70.0649 217.358 64.3589 0.00 0.00 0.00
-56.1201 220.377 68.3346 0.00 0.00 0.00
-41.4223 221.484 69.7923 0.00 0.00 0.00
-26.6791 220.625 68.6619 0.00 0.00 0.00
-12.6004 217.843 64.9978 0.00 0.00 0.00
0.135947 213.271 58.9764 0.00 0.00 0.00
-70.0649 201.033 73.1899 0.00 0.00 0.00
-56.1201 202.709 77.8922 0.00 0.00 0.00
-41.4223 203.323 79.6163 0.00 0.00 0.00
-26.6791 202.847 78.2793 0.00 0.00 0.00
-12.6004 201.303 73.9456 0.00 0.00 0.00
0.135947 198.765 66.8237 0.00 0.00 0.00
-70.0649 182.803 76.6724 0.00 0.00 0.00
-56.1201 182.979 81.6613 0.00 0.00 0.00
-41.4223 183.043 83.4905 0.00 0.00 0.00
-26.6791 182.993 82.0721 0.00 0.00 0.00
-12.6004 182.831 77.4742 0.00 0.00 0.00
0.135947 182.565 69.9183 0.00 0.00 0.00
-79.8649 241.339 16.0389 0.00 0.00 0.00
-65.9201 246.331 16.0389 0.00 0.00 0.00
-51.2223 248.161 16.0389 0.00 0.00 0.00
-36.4791 246.742 16.0389 0.00 0.00 0.00
-22.4004 242.141 16.0389 0.00 0.00 0.00
-9.66405 234.581 16.0389 0.00 0.00 0.00
-79.8649 238.5 34.3807 0.00 0.00 0.00
-65.9201 243.258 35.8898 0.00 0.00 0.00
-51.2223 245.003 36.4431 0.00 0.00 0.00
-36.4791 243.65 36.0141 0.00 0.00 0.00
-22.4004 239.265 34.6232 0.00 0.00 0.00
-9.66405 232.058 32.3375 0.00 0.00 0.00
-79.8649 230.249 51.0059 0.00 0.00 0.00
-65.9201 234.329 53.883 0.00 0.00 0.00
-51.2223 235.824 54.9379 0.00 0.00 0.00
-36.4791 234.664 54.1199 0.00 0.00 0.00
-22.4004 230.905 51.4683 0.00 0.00 0.00
-9.66405 224.726 47.1109 0.00 0.00 0.00
-79.8649 217.358 64.3589 0.00 0.00 0.00
-65.9201 220.377 68.3346 0.00 0.00 0.00
-51.2223 221.484 69.7923 0.00 0.00 0.00
-36.4791 220.625 68.6619 0.00 0.00 0.00
-22.4004 217.843 64.9978 0.00 0.00 0.00
-9.66405 213.271 58.9764 0.00 0.00 0.00
-79.8649 201.033 73.1899 0.00 0.00 0.00
-65.9201 202.709 77.8922 0.00 0.00 0.00
-51.2223 203.323 79.6163 0.00 0.00 0.00
-36.4791 202.847 78.2793 0.00 0.00 0.00
-22.4004 201.303 73.9456 0.00 0.00 0.00
-9.66405 198.765 66.8237 0.00 0.00 0.00
-79.8649 182.803 76.6724 0.00 0.00 0.00
-65.9201 182.979 81.6613 0.00 0.00 0.00
-51.2223 183.043 83.4905 0.00 0.00 0.00
-36.4791 182.993 82.0721 0.00 0.00 0.00
-22.4004 182.831 77.4742 0.00 0.00 0.00
-9.66405 182.565 69.9183 0.00 0.00 0.00
-89.6649 241.339 16.0389 0.00 0.00 0.00
-75.7201 246.331 16.0389 0.00 0.00 0.00
-61.0223 248.161 16.0389 0.00 0.00 0.00
-46.2791 246.742 16.0389 0.00 0.00 0.00
-32.2004 242.141 16.0389 0.00 0.00 0.00
-19.4641 234.581 16.0389 0.00 0.00 0.00
-89.6649 238.5 34.3807 0.00 0.00 0.00
-75.7201 243.258 35.8898 0.00 0.00 0.00
-61.0223 245.003 36.4431 0.00 0.00 0.00
-46.2791 243.65 36.0141 0.00 0.00 0.00
-32.2004 239.265 34.6232 0.00 0.00 0.00
-19.4641 232.058 32.3375 0.00 0.00 0.00
-89.6649 230.249 51.0059 0.00 0.00 0.00
-75.7201 234.329 53.883 0.00 0.00 0.00
-61.0223 235.824 54.9379 0.00 0.00 0.00
-46.2791 234.664 54.1199 0.00 0.00 0.00
-32.2004 230.905 51.4683 0.00 0.00 0.00
-19.4641 224.726 47.1109 0.00 0.00 0.00
-89.6649 217.358 64.3589 0.00 0.00 0.00
-75.7201 220.377 68.3346 0.00 0.00 0.00
-61.0223 221.484 69.7923 0.00 0.00 0.00
-46.2791 220.625 68.6619 0.00 0.00 0.00
-32.2004 217.843 64.9978 0.00 0.00 0.00
-19.4641 213.271 58.9764 0.00 0.00 0.00
-89.6649 201.033 73.1899 0.00 0.00 0.00
-75.7201 202.709 77.8922 0.00 0.00 0.00
-61.0223 203.323 79.6163 0.00 0.00 0.00
-46.2791 202.847 78.2793 0.00 0.00 0.00
-32.2004 201.303 73.9456 0.00 0.00 0.00
-19.4641 198.765 66.8237 0.00 0.00 0.00
-89.6649 182.803 76.6724 0.00 0.00 0.00
-75.7201 182.979 81.6613 0.00 0.00 0.00
-61.0223 183.043 83.4905 0.00 0.00 0.00
-46.2791 182.993 82.0721 0.00 0.00 0.00
-32.2004 182.831 77.4742 0.00 0.00 0.00
-19.4641 182.565 69.9183 0.00 0.00 0.00
-99.4649 241.339 16.0389 0.00 0.00 0.00
-85.5201 246.331 16.0389 0.00 0.00 0.00
-70.8223 248.161 16.0389 0.00 0.00 0.00
-56.0791 246.742 16.0389 0.00 0.00 0.00
-42.0004 242.141 16.0389 0.00 0.00 0.00
-29.2641 234.581 16.0389 0.00 0.00 0.00
-99.4649 238.5 34.3807 0.00 0.00 0.00
-85.5201 243.258 35.8898 0.00 0.00 0.00
-70.8223 245.003 36.4431 0.00 0.00 0.00
-56.0791 243.65 36.0141 0.00 0.00 0.00
-42.0004 239.265 34.6232 0.00 0.00 0.00
-29.2641 232.058 32.3375 0.00 0.00 0.00
-99.4649 230.249 51.0059 0.00 0.00 0.00
-85.5201 234.329 53.883 0.00 0.00 0.00
-70.8223 235.824 54.9379 0.00 0.00 0.00
-56.0791 234.664 54.1199 0.00 0.00 0.00
-42.0004 230.905 51.4683 0.00 0.00 0.00
-29.2641 224.726 47.1109 0.00 0.00 0.00
-99.4649 217.358 64.3589 0.00 0.00 0.00
-85.5201 220.377 68.3346 0.00 0.00 0.00
-70.8223 221.484 69.7923 0.00 0.00 0.00
-56.0791 220.625 68.6619 0.00 0.00 0.00
-42.0004 217.843 64.9978 0.00 0.00 0.00
-29.2641 213.271 58.9764 0.00 0.00 0.00
-99.4649 201.033 73.1899 0.00 0.00 0.00
-85.5201 202.709 77.8922 0.00 0.00 0.00
-70.8223 203.323 79.6163 0.00 0.00 0.00
-56.0791 202.847 78.2793 0.00 0.00 0.00
-42.0004 201.303 73.9456 0.00 0.00 0.00
-29.2641 198.765 66.8237 0.00 0.00 0.00
-99.4649 182.803 76.6724 0.00 0.00 0.00
-85.5201 182.979 81.6613 0.00 0.00 0.00
-70.8223 183.043 83.4905 0.00 0.00 0.00
-56.0791 182.993 82.0721 0.00 0.00 0.00
-42.0004 182.831 77.4742 0.00 0.00 0.00
-29.2641 182.565 69.9183 0.00 0.00 0.00
-109.265 241.339 16.0389 0.00 0.00 0.00
-95.3201 246.331 16.0389 0.00 0.00 0.00
-80.6223 248.161 16.0389 0.00 0.00 0.00
-65.8791 246.742 16.0389 0.00 0.00 0.00
-51.8004 242.141 16.0389 0.00 0.00 0.00
-39.0641 234.581 16.0389 0.00 0.00 0.00
-109.265 238.5 34.3807 0.00 0.00 0.00
-95.3201 243.258 35.8898 0.00 0.00 0.00
-80.6223 245.003 36.4431 0.00 0.00 0.00
-65.8791 243.65 36.0141 0.00 0.00 0.00
-51.8004 239.265 34.6232 0.00 0.00 0.00
-39.0641 232.058 32.3375 0.00 0.00 0.00
-109.265 230.249 51.0059 0.00 0.00 0.00
-95.3201 234.329 53.883 0.00 0.00 0.00
-80.6223 235.824 54.9379 0.00 0.00 0.00
-65.8791 234.664 54.1199 0.00 0.00 0.00
-51.8004 230.905 51.4683 0.00 0.00 0.00
-39.0641 224.726 47.1109 0.00 0.00 0.00
-109.265 217.358 64.3589 0.00 0.00 0.00
-95.3201 220.377 68.3346 0.00 0.00 0.00
-80.6223 221.484 69.7923 0.00 0.00 0.00
-65.8791 220.625 68.6619 0.00 0.00 0.00
-51.8004 217.843 64.9978 0.00 0.00 0.00
-39.0641 213.271 58.9764 0.00 0.00 0.00
-109.265 201.033 73.1899 0.00 0.00 0.00
-95.3201 202.709 77.8922 0.00 0.00 0.00
-80.6223 203.323 79.6163 0.00 0.00 0.00
-65.8791 202.847 78.2793 0.00 0.00 0.00
-51.8004 201.303 73.9456 0.00 0.00 0.00
-39.0641 198.765 66.8237 0.00 0.00 0.00
-109.265 182.803 76.6724 0.00 0.00 0.00
-95.3201 182.979 81.6613 0.00 0.00 0.00
-80.6223 183.043 83.4905 0.00 0.00 0.00
-65.8791 182.993 82.0721 0.00 0.00 0.00
-51.8004 182.831 77.4742 0.00 0.00 0.00
-39.0641 182.565 69.9183 0.00 0.00 0.00
-60.2649 241.339 10.79 0.00 0.00 0.00
-46.3201 246.331 10.79 0.00 0.00 0.00
-31.6223 248.161 10.79 0.00 0.00 0.00
-16.8791 246.742 10.79 0.00 0.00 0.00
-2.80039 242.141 10.79 0.00 0.00 0.00
9.93595 234.581 10.79 0.00 0.00 0.00
-60.2649 238.5 29.1318 0.00 0.00 0.00
-46.3201 243.258 30.6409 0.00 0.00 0.00
-31.6223 245.003 31.1943 0.00 0.00 0.00
-16.8791 243.65 30.7652 0.00 0.00 0.00
-2.80039 239.265 29.3743 0.00 0.00 0.00
9.93595 232.058 27.0886 0.00 0.00 0.00
-60.2649 230.249 45.7571 0.00 0.00 0.00
-46.3201 234.329 48.6341 0.00 0.00 0.00
-31.6223 235.824 49.689 0.00 0.00 0.00
-16.8791 234.664 48.871 0.00 0.00 0.00
-2.80039 230.905 46.2194 0.00 0.00 0.00
9.93595 224.726 41.862 0.00 0.00 0.00
-60.2649 217.358 59.11 0.00 0.00 0.00
-46.3201 220.377 63.0857 0.00 0.00 0.00
-31.6223 221.484 64.5434 0.00 0.00 0.00
-16.8791 220.625 63.413 0.00 0.00 0.00
-2.80039 217.843 59.7489 0.00 0.00 0.00
9.93595 213.271 53.7275 0.00 0.00 0.00
-60.2649 201.033 67.941 0.00 0.00 0.00
-46.3201 202.709 72.6433 0.00 0.00 0.00
-31.6223 203.323 74.3674 0.00 0.00 0.00
-16.8791 202.847 73.0304 0.00 0.00 0.00
-2.80039 201.303 68.6967 0.00 0.00 0.00
9.93595 198.765 61.5748 0.00 0.00 0.00
-60.2649 182.803 71.4236 0.00 0.00 0.00
-46.3201 182.979 76.4124 0.00 0.00 0.00
-31.6223 183.043 78.2416 0.00 0.00 0.00
-16.8791 182.993 76.8232 0.00 0.00 0.00
-2.80039 182.831 72.2253 0.00 0.00 0.00
9.93595 182.565 64.6695 0.00 0.00 0.00
-70.0649 241.339 10.79 0.00 0.00 0.00
-56.1201 246.331 10.79 0.00 0.00 0.00
-41.4223 248.161 10.79 0.00 0.00 0.00
-26.6791 246.742 10.79 0.00 0.00 0.00
-12.6004 242.141 10.79 0.00 0.00 0.00
0.135947 234.581 10.79 0.00 0.00 0.00
-70.0649 238.5 29.1318 0.00 0.00 0.00
-56.1201 243.258 30.6409 0.00 0.00 0.00
-41.4223 245.003 31.1943 0.00 0.00 0.00
-26.6791 243.65 30.7652 0.00 0.00 0.00
-12.6004 239.265 29.3743 0.00 0.00 0.00
0.135947 232.058 27.0886 0.00 0.00 0.00
-70.0649 230.249 45.7571 0.00 0.00 0.00
-56.1201 234.329 48.6341 0.00 0.00 0.00
-41.4223 235.824 49.689 0.00 0.00 0.00
-26.6791 234.664 48.871 0.00 0.00 0.00
-12.6004 230.905 46.2194 0.00 0.00 0.00
0.135947 224.726 41.862 0.00 0.00 0.00
-70.0649 217.358 59.11 0.00 0.00 0.00
-56.1201 220.377 63.0857 0.00 0.00 0.00
-41.4223 221.484 64.5434 0.00 0.00 0.00
-26.6791 220.625 63.413 0.00 0.00 0.00
-12.6004 217.843 59.7489 0.00 0.00 0.00
0.135947 213.271 53.7275 0.00 0.00 0.00
-70.0649 201.033 67.941 0.00 0.00 0.00
-56.1201 202.709 72.6433 0.00 0.00 0.00
-41.4223 203.323 74.3674 0.00 0.00 0.00
-26.6791 202.847 73.0304 0.00 0.00 0.00
-12.6004 201.303 68.6967 0.00 0.00 0.00
0.135947 198.765 61.5748 0.00 0.00 0.00
-70.0649 182.803 71.4236 0.00 0.00 0.00
-56.1201 182.979 76.4124 0.00 0.00 0.00
-41.4223 183.043 78.2416 0.00 0.00 0.00
-26.6791 182.993 76.8232 0.00 0.00 0.00
-12.6004 182.831 72.2253 0.00 0.00 0.00
0.135947 182.565 64.6695 0.00 0.00 0.00
-79.8649 241.339 10.79 0.00 0.00 0.00
-65.9201 246.331 10.79 0.00 0.00 0.00
-51.2223 248.161 10.79 0.00 0.00 0.00
-36.4791 246.742 10.79 0.00 0.00 0.00
-22.4004 242.141 10.79 0.00 0.00 0.00
-9.66405 234.581 10.79 0.00 0.00 0.00
-79.8649 238.5 29.1318 0.00 0.00 0.00
-65.9201 243.258 30.6409 0.00 0.00 0.00
-51.2223 245.003 31.1943 0.00 0.00 0.00
-36.4791 243.65 30.7652 0.00 0.00 0.00
-22.4004 239.265 29.3743 0.00 0.00 0.00
-9.66405 232.058 27.0886 0.00 0.00 0.00
-79.8649 230.249 45.7571 0.00 0.00 0.00
-65.9201 234.329 48.6341 0.00 0.00 0.00
-51.2223 235.824 49.689 0.00 0.00 0.00
-36.4791 234.664 48.871 0.00 0.00 0.00
-22.4004 230.905 46.2194 0.00 0.00 0.00
-9.66405 224.726 41.862 0.00 0.00 0.00
-79.8649 217.358 59.11 0.00 0.00 0.00
-65.9201 220.377 63.0857 0.00 0.00 0.00
-51.2223 221.484 64.5434 0.00 0.00 0.00
-36.4791 220.625 63.413 0.00 0.00 0.00
-22.4004 217.843 59.7489 0.00 0.00 0.00
-9.66405 213.271 53.7275 0.00 0.00 0.00
-79.8649 201.033 67.941 0.00 0.00 0.00
-65.9201 202.709 72.6433 0.00 0.00 0.00
-51.2223 203.323 74.3674 0.00 0.00 0.00
-36.4791 202.847 73.0304 0.00 0.00 0.00
-22.4004 201.303 68.6967 0.00 0.00 0.00
-9.66405 198.765 61.5748 0.00 0.00 0.00
-79.8649 182.803 71.4236 0.00 0.00 0.00
-65.9201 182.979 76.4124 0.00 0.00 0.00
-51.2223 183.043 78.2416 0.00 0.00 0.00
-36.4791 182.993 76.8232 0.00 0.00 0.00
-22.4004 182.831 72.2253 0.00 0.00 0.00
-9.66405 182.565 64.6695 0.00 0.00 0.00
-89.6649 241.339 10.79 0.00 0.00 0.00
-75.7201 246.331 10.79 0.00 0.00 0.00
-61.0223 248.161 10.79 0.00 0.00 0.00
-46.2791 246.742 10.79 0.00 0.00 0.00
-32.2004 242.141 10.79 0.00 0.00 0.00
-19.4641 234.581 10.79 0.00 0.00 0.00
-89.6649 238.5 29.1318 0.00 0.00 0.00
-75.7201 243.258 30.6409 0.00 0.00 0.00
-61.0223 245.003 31.1943 0.00 0.00 0.00
-46.2791 243.65 30.7652 0.00 0.00 0.00
-32.2004 239.265 29.3743 0.00 0.00 0.00
-19.4641 232.058 27.0886 0.00 0.00 0.00
-89.6649 230.249 45.7571 0.00 0.00 0.00
-75.7201 234.329 48.6341 0.00 0.00 0.00
-61.0223 235.824 49.689 0.00 0.00 0.00
-46.2791 234.664 48.871 0.00 0.00 0.00
